ply
format ascii 1.0
element vertex 1174
property float x
property float y
property float z
property uchar red
property uchar green
property uchar blue
end_header
2.467175 -0.195420 -6.253435 179 182 171 
2.487805 -0.195122 -6.243902 212 215 198 
2.504559 -0.194529 -6.224924 215 218 201 
2.528875 -0.194529 -6.224924 221 222 214 
2.560976 -0.195122 -6.243902 216 215 217 
2.695788 -0.199688 -6.390016 205 204 213 
2.716511 -0.199377 -6.380062 209 208 214 
2.737170 -0.199067 -6.370140 213 212 217 
2.762053 -0.199067 -6.370140 209 208 213 
2.791277 -0.199377 -6.380062 211 209 216 
2.825000 -0.200000 -6.400000 215 213 222 
2.904459 -0.203822 -6.522293 219 217 226 
2.939297 -0.204473 -6.543131 221 221 230 
2.964856 -0.204473 -6.543131 215 215 226 
3.004815 -0.205457 -6.574639 204 203 216 
-1.429658 -0.273764 -7.787072 134 123 73 
-1.393939 -0.272727 -7.757576 130 121 72 
-1.358491 -0.271698 -7.728302 128 119 71 
-1.320825 -0.270169 -7.684803 128 120 73 
-1.276438 -0.267161 -7.599258 130 122 76 
-1.237569 -0.265193 -7.543278 129 121 75 
-1.205882 -0.264706 -7.529412 127 118 73 
-1.174312 -0.264220 -7.515596 123 114 70 
-1.144954 -0.264220 -7.515596 118 111 66 
-1.113553 -0.263736 -7.501832 121 115 69 
-1.084249 -0.263736 -7.501832 126 118 73 
-1.054945 -0.263736 -7.501832 119 109 65 
-1.025641 -0.263736 -7.501832 122 111 68 
-0.996337 -0.263736 -7.501832 124 114 71 
-0.970588 -0.264706 -7.529412 107 98 54 
-0.946396 -0.266174 -7.571165 103 96 54 
-0.918519 -0.266667 -7.585185 103 96 55 
-0.882353 -0.264706 -7.529412 98 90 50 
-0.852941 -0.264706 -7.529412 95 87 48 
-0.820513 -0.263736 -7.501832 91 84 45 
-0.729345 -0.410256 -11.669516 81 73 38 
-0.683761 -0.410256 -11.669516 79 71 37 
-0.547009 -0.410256 -11.669516 72 63 30 
-0.500000 -0.409091 -11.636364 71 63 29 
-0.040000 -0.360000 -10.240000 87 78 40 
0.000000 -0.360000 -10.240000 84 74 37 
0.040100 -0.360902 -10.265664 79 69 33 
0.080201 -0.360902 -10.265664 77 67 32 
0.120000 -0.360000 -10.240000 80 72 35 
0.159601 -0.359102 -10.214464 88 81 41 
0.199005 -0.358209 -10.189054 87 80 39 
0.238806 -0.358209 -10.189054 80 72 33 
0.277916 -0.357320 -10.163772 80 70 34 
0.316832 -0.356436 -10.138614 81 71 36 
0.358209 -0.358209 -10.189054 80 69 34 
0.795812 -0.376963 -10.722513 86 78 42 
0.692641 -0.311688 -8.865801 85 76 40 
0.727273 -0.311688 -8.865801 86 78 42 
0.761905 -0.311688 -8.865801 92 82 45 
0.794816 -0.311015 -8.846652 94 85 47 
0.827586 -0.310345 -8.827586 94 84 46 
0.858369 -0.309013 -8.789700 96 85 46 
0.892704 -0.309013 -8.789700 101 88 49 
0.939450 -0.264220 -7.515596 126 116 76 
0.965265 -0.263254 -7.488117 144 134 88 
0.992701 -0.262774 -7.474452 151 139 89 
1.021898 -0.262774 -7.474452 162 149 96 
1.035187 -0.163451 -4.649262 144 131 86 
1.049774 -0.162896 -4.633484 149 134 87 
1.066667 -0.162712 -4.628249 138 122 73 
1.084746 -0.162712 -4.628249 151 133 82 
1.102825 -0.162712 -4.628249 164 146 95 
1.120904 -0.162712 -4.628249 127 110 65 
1.140272 -0.162896 -4.633484 76 62 28 
0.809668 -0.108761 -3.093656 66 58 32 
0.820513 -0.108597 -3.088989 69 62 33 
0.831325 -0.108434 -3.084337 74 68 35 
2.569343 -0.262774 -7.474452 52 50 32 
2.524823 -0.255319 -7.262411 55 52 33 
2.530756 -0.253076 -7.198594 59 55 37 
2.510345 -0.248276 -7.062069 61 57 39 
2.433058 -0.238017 -6.770248 63 58 40 
2.419512 -0.234146 -6.660162 65 61 44 
2.410256 -0.230769 -6.564103 69 66 49 
2.405063 -0.227848 -6.481013 72 69 56 
2.415094 -0.226415 -6.440251 76 72 68 
2.425000 -0.225000 -6.400000 79 76 77 
2.438569 -0.223950 -6.370140 85 83 87 
2.448223 -0.222566 -6.330757 116 116 118 
2.461539 -0.221538 -6.301538 163 166 158 
2.478528 -0.220859 -6.282208 205 209 193 
2.495413 -0.220183 -6.262997 215 219 203 
2.516031 -0.219847 -6.253435 213 216 206 
2.536585 -0.219512 -6.243902 219 221 219 
2.564885 -0.219847 -6.253435 215 216 220 
2.629457 -0.223256 -6.350388 202 203 211 
2.670827 -0.224649 -6.390016 201 200 210 
2.691589 -0.224299 -6.380062 206 205 213 
2.716511 -0.224299 -6.380062 208 207 212 
2.737170 -0.223950 -6.370140 209 208 213 
2.762053 -0.223950 -6.370140 207 206 211 
2.791277 -0.224299 -6.380062 207 205 212 
2.825000 -0.225000 -6.400000 210 208 216 
2.854460 -0.225352 -6.410016 216 215 222 
2.934609 -0.229665 -6.532695 222 221 229 
2.964856 -0.230032 -6.543131 214 213 222 
-1.460076 -0.304182 -7.787072 138 124 75 
-1.424242 -0.303030 -7.757576 127 115 68 
-1.388679 -0.301887 -7.728302 127 118 71 
-1.350844 -0.300188 -7.684803 128 119 72 
-1.313433 -0.298507 -7.641791 126 118 72 
-1.274074 -0.296296 -7.585185 128 119 75 
-1.237569 -0.294659 -7.543278 121 114 70 
-1.205882 -0.294118 -7.529412 124 117 72 
-1.176471 -0.294118 -7.529412 128 122 74 
-1.147059 -0.294118 -7.529412 130 125 75 
-1.117647 -0.294118 -7.529412 129 122 73 
-1.088235 -0.294118 -7.529412 131 122 75 
-1.060773 -0.294659 -7.543278 122 112 67 
-1.033210 -0.295203 -7.557196 114 102 61 
-1.003690 -0.295203 -7.557196 109 97 59 
-0.975970 -0.295749 -7.571165 107 96 56 
-0.948148 -0.296296 -7.585185 108 99 58 
-0.918519 -0.296296 -7.585185 106 98 57 
-0.887246 -0.295749 -7.571165 100 92 51 
-0.857671 -0.295749 -7.571165 97 88 48 
-0.729345 -0.455840 -11.669516 81 74 37 
-0.683761 -0.455840 -11.669516 70 61 28 
-0.266297 -0.221914 -5.680999 73 65 32 
-0.244105 -0.221914 -5.680999 77 69 34 
-0.040000 -0.400000 -10.240000 87 77 40 
0.000000 -0.400000 -10.240000 84 74 37 
0.040000 -0.400000 -10.240000 79 68 33 
0.080000 -0.400000 -10.240000 77 66 31 
0.119701 -0.399002 -10.214464 80 71 34 
0.158809 -0.397022 -10.163772 87 79 39 
0.197044 -0.394089 -10.088670 84 76 36 
0.235872 -0.393120 -10.063882 80 70 32 
0.275184 -0.393120 -10.063882 79 68 32 
0.316832 -0.396040 -10.138614 80 70 35 
0.717678 -0.422164 -10.807388 89 81 44 
0.727273 -0.346320 -8.865801 85 75 39 
0.761905 -0.346320 -8.865801 87 77 40 
0.796537 -0.346320 -8.865801 91 82 44 
0.829374 -0.345572 -8.846652 97 89 50 
0.858369 -0.343348 -8.789700 100 91 50 
0.892704 -0.343348 -8.789700 103 92 50 
1.034343 -0.323232 -8.274748 127 117 75 
0.967033 -0.293040 -7.501832 153 142 91 
0.992701 -0.291971 -7.474452 167 153 98 
1.021898 -0.291971 -7.474452 185 170 113 
1.034014 -0.181406 -4.643991 145 134 88 
1.048588 -0.180791 -4.628249 157 144 97 
1.064262 -0.180383 -4.617813 136 121 75 
1.078652 -0.179775 -4.602247 128 112 63 
1.096629 -0.179775 -4.602247 173 157 104 
1.114607 -0.179775 -4.602247 198 185 133 
1.137697 -0.180587 -4.623025 127 112 70 
0.821132 -0.120755 -3.091321 72 68 42 
0.832579 -0.120664 -3.088989 75 71 41 
2.563536 -0.294659 -7.543278 58 54 34 
2.555354 -0.290381 -7.433757 57 54 34 
2.515901 -0.282686 -7.236749 60 55 35 
2.495667 -0.277296 -7.098787 66 62 42 
2.484642 -0.273038 -6.989761 69 65 46 
2.465662 -0.268007 -6.860971 71 67 48 
2.435352 -0.261866 -6.703764 73 70 52 
2.433657 -0.258900 -6.627832 75 72 59 
2.435897 -0.256410 -6.564103 78 74 69 
2.434231 -0.253566 -6.491284 79 76 79 
2.440252 -0.251572 -6.440251 90 88 93 
2.450000 -0.250000 -6.400000 112 111 112 
2.467290 -0.249221 -6.380062 156 158 151 
2.480620 -0.248062 -6.350388 200 204 188 
2.486154 -0.246154 -6.301538 213 217 202 
2.503067 -0.245399 -6.282208 213 215 206 
2.519878 -0.244648 -6.262997 210 212 211 
2.540458 -0.244275 -6.253435 210 211 217 
2.564885 -0.244275 -6.253435 209 209 219 
2.609231 -0.246154 -6.301538 204 205 214 
2.666667 -0.249221 -6.380062 205 205 215 
2.700000 -0.250000 -6.400000 208 208 215 
2.725000 -0.250000 -6.400000 205 204 210 
2.750000 -0.250000 -6.400000 201 200 207 
2.775000 -0.250000 -6.400000 202 201 208 
2.800000 -0.250000 -6.400000 207 206 213 
2.829421 -0.250391 -6.410016 214 212 220 
2.872441 -0.251969 -6.450394 214 213 220 
2.934609 -0.255183 -6.532695 213 212 219 
2.974359 -0.256410 -6.564103 209 208 215 
-1.454545 -0.333333 -7.757576 170 156 103 
-1.418868 -0.332075 -7.728302 143 131 79 
-1.383459 -0.330827 -7.699248 141 130 81 
-1.348315 -0.329588 -7.670412 138 129 81 
-1.308550 -0.327138 -7.613383 130 121 75 
-1.269373 -0.324723 -7.557196 125 116 72 
-1.235294 -0.323529 -7.529412 122 114 70 
-1.203670 -0.322936 -7.515596 125 118 72 
-1.174312 -0.322936 -7.515596 133 126 77 
-1.147059 -0.323529 -7.529412 137 130 80 
-1.117647 -0.323529 -7.529412 132 123 74 
-1.090239 -0.324125 -7.543278 125 114 68 
-1.062731 -0.324723 -7.557196 117 106 63 
-1.037037 -0.325926 -7.585185 114 102 63 
-0.949907 -0.326531 -7.599258 105 96 54 
-0.918519 -0.325926 -7.585185 104 95 54 
-0.888889 -0.325926 -7.585185 102 93 52 
-0.857671 -0.325323 -7.571165 97 88 48 
-0.823529 -0.323529 -7.529412 88 79 41 
-0.645740 -0.263079 -6.122571 81 72 35 
-0.621824 -0.263079 -6.122571 79 71 34 
-0.596125 -0.262295 -6.104322 81 73 36 
-0.572280 -0.262295 -6.104322 100 93 54 
-0.548435 -0.262295 -6.104322 96 89 49 
-0.372093 -0.240766 -5.603283 84 76 37 
-0.350205 -0.240766 -5.603283 78 70 35 
-0.330124 -0.242091 -5.634113 67 59 27 
-0.309392 -0.243094 -5.657459 64 55 24 
-0.287690 -0.243430 -5.665284 69 60 29 
-0.265560 -0.243430 -5.665284 72 63 30 
-0.243430 -0.243430 -5.665284 71 63 29 
-0.221607 -0.243767 -5.673130 70 62 26 
-0.280000 -0.440000 -10.240000 87 77 39 
-0.240000 -0.440000 -10.240000 76 65 30 
-0.040000 -0.440000 -10.240000 81 71 34 
0.000000 -0.440000 -10.240000 79 69 33 
0.039900 -0.438903 -10.214464 77 67 32 
0.079801 -0.438903 -10.214464 77 66 32 
0.119107 -0.436725 -10.163772 80 69 34 
0.157635 -0.433498 -10.088670 85 75 38 
0.195599 -0.430318 -10.014670 85 73 36 
0.233010 -0.427184 -9.941748 83 71 35 
0.273171 -0.429268 -9.990244 83 71 35 
0.313726 -0.431373 -10.039216 82 71 35 
0.453441 -0.356275 -8.291498 85 78 38 
0.628272 -0.460733 -10.722513 87 79 39 
0.675462 -0.464380 -10.807388 92 84 45 
0.717678 -0.464380 -10.807388 89 80 42 
0.759894 -0.464380 -10.807388 86 76 40 
0.692641 -0.380952 -8.865801 87 78 42 
0.725702 -0.380130 -8.846652 87 77 41 
0.760259 -0.380130 -8.846652 88 78 41 
0.794816 -0.380130 -8.846652 90 81 43 
0.827586 -0.379310 -8.827586 97 89 49 
0.858369 -0.377682 -8.789700 102 94 52 
0.892704 -0.377682 -8.789700 107 97 54 
1.008130 -0.357724 -8.325203 115 103 62 
1.032258 -0.354839 -8.258064 135 123 76 
1.060241 -0.353414 -8.224899 157 145 91 
1.046223 -0.198422 -4.617813 143 131 86 
1.059484 -0.197531 -4.597082 133 120 76 
1.075028 -0.197088 -4.586786 125 111 66 
1.092945 -0.197088 -4.586786 153 139 90 
1.110862 -0.197088 -4.586786 198 183 133 
1.131313 -0.197531 -4.597082 164 146 99 
0.880259 -0.142395 -3.313916 85 83 60 
0.893204 -0.142395 -3.313916 104 103 75 
2.569343 -0.321168 -7.474452 70 67 46 
2.542857 -0.314286 -7.314286 73 70 49 
2.504348 -0.306087 -7.123478 76 72 53 
2.497427 -0.301887 -7.025729 77 73 56 
2.486486 -0.297297 -6.918919 77 73 59 
2.463576 -0.291391 -6.781457 78 75 64 
2.457516 -0.287582 -6.692811 79 76 73 
2.459547 -0.284790 -6.627832 82 79 82 
2.461539 -0.282051 -6.564103 94 93 96 
2.459588 -0.278922 -6.491284 124 125 124 
2.465409 -0.276730 -6.440251 165 168 158 
2.486656 -0.276295 -6.430141 198 201 185 
2.500000 -0.275000 -6.400000 211 214 196 
2.509317 -0.273292 -6.360249 203 206 195 
2.514638 -0.271186 -6.311248 203 205 203 
2.527607 -0.269939 -6.282208 208 209 213 
2.544343 -0.269113 -6.262997 214 214 223 
2.572741 -0.269525 -6.272588 215 216 225 
2.641745 -0.274143 -6.380062 214 215 224 
2.679186 -0.275430 -6.410016 215 216 224 
2.708464 -0.275862 -6.420063 211 211 219 
2.733542 -0.275862 -6.420063 204 204 212 
2.758621 -0.275862 -6.420063 199 199 209 
2.783699 -0.275862 -6.420063 198 198 208 
2.813187 -0.276295 -6.430141 200 200 209 
2.847244 -0.277165 -6.450394 207 206 215 
2.895238 -0.279365 -6.501587 207 206 214 
2.939297 -0.281150 -6.543131 210 208 216 
-1.421550 -0.362949 -7.742911 147 133 79 
-1.386064 -0.361582 -7.713748 144 131 79 
-1.350844 -0.360225 -7.684803 145 134 85 
-1.310987 -0.357542 -7.627561 141 131 83 
-1.269373 -0.354244 -7.557196 129 121 73 
-1.235294 -0.352941 -7.529412 133 124 76 
-1.201465 -0.351648 -7.501832 132 124 75 
-1.172161 -0.351648 -7.501832 133 125 76 
-1.147059 -0.352941 -7.529412 134 125 76 
-0.920223 -0.356215 -7.599258 107 98 56 
-0.712166 -0.284866 -6.077151 102 93 52 
-0.688427 -0.284866 -6.077151 93 85 44 
-0.666667 -0.285714 -6.095238 88 80 41 
-0.643815 -0.286140 -6.104322 84 76 39 
-0.619970 -0.286140 -6.104322 78 71 34 
-0.595238 -0.285714 -6.095238 79 72 35 
-0.571429 -0.285714 -6.095238 92 84 46 
-0.547619 -0.285714 -6.095238 91 83 45 
-0.524590 -0.286140 -6.104322 88 81 42 
-0.392906 -0.261937 -5.587995 99 91 51 
-0.371078 -0.261937 -5.587995 69 61 25 
-0.349727 -0.262295 -5.595628 73 66 33 
-0.328317 -0.262654 -5.603283 71 64 32 
-0.308116 -0.264099 -5.634113 73 65 32 
-0.287293 -0.265193 -5.657459 77 69 35 
-0.265193 -0.265193 -5.657459 73 65 30 
-0.243094 -0.265193 -5.657459 68 60 26 
-0.220994 -0.265193 -5.657459 67 59 24 
-0.200000 -0.266667 -5.688889 75 67 31 
-0.178025 -0.267038 -5.696801 83 73 37 
-0.279302 -0.478803 -10.214464 78 68 33 
-0.240000 -0.480000 -10.240000 74 64 30 
-0.200000 -0.480000 -10.240000 78 69 34 
-0.160000 -0.480000 -10.240000 88 81 42 
0.000000 -0.480000 -10.240000 79 68 33 
0.039900 -0.478803 -10.214464 79 67 33 
0.079404 -0.476427 -10.163772 76 64 31 
0.118519 -0.474074 -10.113581 77 64 31 
0.156479 -0.469438 -10.014670 77 64 31 
0.194175 -0.466019 -9.941748 78 66 31 
0.231884 -0.463768 -9.893720 82 69 33 
0.270531 -0.463768 -9.893720 84 72 34 
0.420202 -0.387879 -8.274748 86 77 37 
0.452525 -0.387879 -8.274748 84 76 38 
0.486815 -0.389452 -8.308316 86 78 39 
0.521385 -0.391039 -8.342159 91 82 43 
0.713911 -0.503937 -10.750656 92 81 43 
0.751958 -0.501305 -10.694517 91 81 43 
0.641350 -0.405063 -8.641350 94 84 45 
0.675106 -0.405063 -8.641350 94 84 45 
0.714894 -0.408511 -8.714893 96 86 47 
0.750533 -0.409382 -8.733476 96 86 47 
0.793103 -0.413793 -8.827586 91 82 44 
0.824034 -0.412017 -8.789700 91 83 44 
0.847458 -0.406780 -8.677966 96 87 47 
0.881356 -0.406780 -8.677966 104 94 54 
0.915254 -0.406780 -8.677966 106 95 56 
0.969697 -0.387879 -8.274748 130 121 74 
1.000000 -0.387097 -8.258064 137 127 78 
1.030181 -0.386318 -8.241448 146 133 83 
1.055928 -0.214765 -4.581656 130 118 76 
1.069042 -0.213808 -4.561247 128 114 74 
1.086860 -0.213808 -4.561247 131 116 73 
1.107143 -0.214286 -4.571429 147 129 83 
1.125000 -0.214286 -4.571429 159 139 92 
1.146697 -0.215006 -4.586786 127 107 68 
2.597786 -0.354244 -7.557196 77 74 56 
2.584392 -0.348457 -7.433757 81 78 60 
2.526316 -0.336842 -7.185965 82 78 64 
2.497427 -0.329331 -7.025729 82 77 66 
2.486486 -0.324324 -6.918919 81 76 71 
2.484140 -0.320534 -6.838063 84 79 80 
2.490066 -0.317881 -6.781457 89 86 89 
2.483660 -0.313726 -6.692811 101 99 101 
2.497561 -0.312195 -6.660162 134 135 130 
2.495177 -0.308682 -6.585209 179 182 170 
2.516854 -0.308186 -6.574639 211 215 198 
2.526316 -0.306220 -6.532695 217 220 203 
2.523659 -0.302839 -6.460568 209 211 199 
2.536892 -0.301413 -6.430141 206 207 203 
2.550000 -0.300000 -6.400000 207 207 210 
2.551084 -0.297214 -6.340557 213 212 219 
2.575851 -0.297214 -6.340557 217 216 226 
2.620905 -0.299532 -6.390016 212 212 222 
2.700637 -0.305732 -6.522293 213 214 222 
2.713154 -0.304279 -6.491284 217 218 225 
2.734177 -0.303797 -6.481013 214 215 221 
2.746457 -0.302362 -6.450394 209 210 218 
2.771654 -0.302362 -6.450394 205 206 215 
2.796850 -0.302362 -6.450394 202 202 213 
2.826499 -0.302839 -6.460568 200 199 211 
2.869841 -0.304762 -6.501587 199 198 209 
2.904459 -0.305732 -6.522293 201 199 209 
-1.413534 -0.390977 -7.699248 164 149 91 
-1.380863 -0.390244 -7.684803 157 143 86 
-1.350844 -0.390244 -7.684803 159 147 89 
-1.197080 -0.379562 -7.474452 143 133 81 
-1.170018 -0.380256 -7.488117 138 127 77 
-0.735905 -0.308605 -6.077151 111 102 59 
-0.711111 -0.308148 -6.068148 102 93 52 
-0.685377 -0.307238 -6.050221 95 87 46 
-0.656892 -0.304985 -6.005865 93 86 45 
-0.635294 -0.305882 -6.023530 92 85 44 
-0.611765 -0.305882 -6.023530 86 78 39 
-0.589102 -0.306333 -6.032401 82 75 37 
-0.567208 -0.307238 -6.050221 82 75 37 
-0.547619 -0.309524 -6.095238 83 76 38 
-0.392371 -0.283379 -5.580381 75 65 31 
-0.370572 -0.283379 -5.580381 59 50 17 
-0.349250 -0.283765 -5.587995 71 63 30 
-0.327869 -0.284153 -5.595628 70 63 30 
-0.308116 -0.286107 -5.634113 74 66 32 
-0.286897 -0.286897 -5.649655 80 72 36 
-0.264828 -0.286897 -5.649655 80 73 36 
-0.242759 -0.286897 -5.649655 76 68 31 
-0.220690 -0.286897 -5.649655 75 67 29 
-0.199170 -0.287690 -5.665284 77 67 31 
-0.280000 -0.520000 -10.240000 69 59 26 
-0.199501 -0.518703 -10.214464 83 75 39 
-0.159601 -0.518703 -10.214464 95 88 49 
-0.119701 -0.518703 -10.214464 85 78 39 
0.039801 -0.517413 -10.189054 82 70 36 
0.079404 -0.516129 -10.163772 81 69 35 
0.117647 -0.509804 -10.039216 78 65 31 
0.155340 -0.504854 -9.941748 75 62 29 
0.193237 -0.502415 -9.893720 74 61 28 
0.230769 -0.500000 -9.846154 79 67 29 
0.269231 -0.500000 -9.846154 92 80 37 
0.420202 -0.420202 -8.274748 86 76 37 
0.452525 -0.420202 -8.274748 81 71 34 
0.485830 -0.421053 -8.291498 83 73 36 
0.519270 -0.421907 -8.308316 93 83 45 
0.560825 -0.428866 -8.445361 98 87 46 
0.596273 -0.430642 -8.480331 101 90 47 
0.632017 -0.432432 -8.515593 107 96 53 
0.666667 -0.433333 -8.533334 100 89 47 
0.704403 -0.436059 -8.587002 98 88 48 
0.737945 -0.436059 -8.587002 98 89 49 
0.774737 -0.437895 -8.623158 95 86 46 
0.808421 -0.437895 -8.623158 94 85 46 
0.838574 -0.436059 -8.587002 94 84 46 
0.866667 -0.433333 -8.533334 99 89 51 
0.888889 -0.427984 -8.427983 104 93 55 
0.906883 -0.421053 -8.291498 112 102 63 
0.935484 -0.419355 -8.258064 121 112 68 
0.967742 -0.419355 -8.258064 138 130 80 
0.997988 -0.418511 -8.241448 170 161 108 
1.026052 -0.416834 -8.208417 171 158 106 
1.058116 -0.416834 -8.208417 163 149 97 
1.051225 -0.231626 -4.561247 131 121 79 
1.067853 -0.231368 -4.556173 128 116 76 
1.085651 -0.231368 -4.556173 130 117 77 
1.103448 -0.231368 -4.556173 133 119 74 
1.120000 -0.231111 -4.551111 164 149 97 
1.140312 -0.231626 -4.561247 197 181 130 
2.718750 -0.406250 -8.000000 82 78 68 
2.631776 -0.388785 -7.656075 85 82 72 
2.627306 -0.383764 -7.557196 87 83 75 
2.608696 -0.376812 -7.420290 88 85 80 
2.554386 -0.364912 -7.185965 90 86 84 
2.524871 -0.356775 -7.025729 96 92 92 
2.509275 -0.350759 -6.907251 108 106 107 
2.510851 -0.347245 -6.838063 128 128 125 
2.516556 -0.344371 -6.781457 156 158 147 
2.526316 -0.342105 -6.736842 185 186 170 
2.540098 -0.340426 -6.703764 204 204 189 
2.549593 -0.338211 -6.660162 214 214 201 
2.550725 -0.334944 -6.595813 214 214 207 
2.568218 -0.333868 -6.574639 208 208 207 
2.573248 -0.331210 -6.522293 202 202 207 
2.578199 -0.328594 -6.470774 206 205 213 
2.603476 -0.328594 -6.470774 212 212 221 
2.628752 -0.328594 -6.470774 210 210 220 
2.679426 -0.331738 -6.532695 204 206 215 
2.709265 -0.332268 -6.543131 215 217 223 
2.730463 -0.331738 -6.532695 231 233 236 
2.742857 -0.330159 -6.501587 225 227 230 
2.759494 -0.329114 -6.481013 216 217 222 
2.776025 -0.328076 -6.460568 209 209 217 
2.801262 -0.328076 -6.460568 206 205 215 
2.839936 -0.329636 -6.491284 206 205 216 
2.874404 -0.330684 -6.511924 205 203 214 
-1.323944 -0.394366 -7.211267 195 177 108 
-1.282230 -0.390244 -7.135889 193 177 109 
-1.254355 -0.390244 -7.135889 176 163 95 
-1.144852 -0.390925 -7.148342 152 141 87 
-0.950495 -0.369637 -6.759076 108 96 58 
-0.735905 -0.332344 -6.077151 109 100 58 
-0.710059 -0.331361 -6.059172 101 91 51 
-0.679356 -0.327965 -5.997072 100 91 51 
-0.654971 -0.327485 -5.988304 97 90 49 
-0.632504 -0.327965 -5.997072 96 89 48 
-0.607299 -0.327007 -5.979562 93 85 45 
-0.583942 -0.327007 -5.979562 90 83 42 
-0.563050 -0.328446 -6.005865 88 81 41 
-0.543575 -0.330871 -6.050221 87 80 40 
-0.414169 -0.305177 -5.580381 66 56 21 
-0.391837 -0.304762 -5.572789 62 52 20 
-0.370068 -0.304762 -5.572789 68 60 26 
-0.348774 -0.305177 -5.580381 80 72 36 
-0.327422 -0.305593 -5.587995 82 75 37 
-0.306011 -0.306011 -5.595628 79 72 33 
-0.286107 -0.308116 -5.634113 84 77 37 
-0.264463 -0.308540 -5.641873 88 81 41 
-0.242424 -0.308540 -5.641873 82 75 34 
-0.220690 -0.308966 -5.649655 79 72 31 
-0.199170 -0.309820 -5.665284 84 75 36 
-0.199501 -0.558603 -10.214464 78 70 34 
-0.159204 -0.557214 -10.189054 84 77 39 
-0.119701 -0.558603 -10.214464 79 71 33 
0.078624 -0.550369 -10.063882 81 69 35 
0.116505 -0.543689 -9.941748 79 67 33 
0.154589 -0.541063 -9.893720 77 64 31 
0.192308 -0.538462 -9.846154 75 62 29 
0.230769 -0.538462 -9.846154 77 64 27 
0.268585 -0.537170 -9.822542 102 89 45 
0.306954 -0.537170 -9.822542 146 131 84 
0.454361 -0.454361 -8.308316 83 73 35 
0.485830 -0.453441 -8.291498 82 72 35 
0.518219 -0.453441 -8.291498 93 83 44 
0.552846 -0.455285 -8.325203 103 92 50 
0.593814 -0.461856 -8.445361 106 95 50 
0.630705 -0.464730 -8.497926 113 102 58 
0.666667 -0.466667 -8.533334 99 90 47 
0.704403 -0.469602 -8.587002 96 87 47 
0.737945 -0.469602 -8.587002 97 88 48 
0.774737 -0.471579 -8.623158 97 89 48 
0.806723 -0.470588 -8.605042 97 88 50 
0.833333 -0.466667 -8.533334 96 87 49 
0.855967 -0.460905 -8.427983 100 90 53 
0.874494 -0.453441 -8.291498 107 97 59 
0.901408 -0.450704 -8.241448 114 105 65 
0.933602 -0.450704 -8.241448 118 109 65 
0.965795 -0.450704 -8.241448 129 120 72 
0.997988 -0.450704 -8.241448 154 145 93 
1.028112 -0.449799 -8.224899 154 141 89 
1.066667 -0.452525 -8.274748 156 141 91 
1.050056 -0.249166 -4.556173 127 118 78 
1.064302 -0.248337 -4.541020 125 114 75 
1.083241 -0.248613 -4.546060 124 112 74 
1.100999 -0.248613 -4.546060 121 110 69 
1.116279 -0.248062 -4.535991 130 119 70 
1.135255 -0.248337 -4.541020 181 169 116 
2.718750 -0.437500 -8.000000 99 96 89 
2.651601 -0.421846 -7.713748 100 98 90 
2.661682 -0.418692 -7.656075 103 101 94 
2.651934 -0.412523 -7.543278 113 111 107 
2.681400 -0.412523 -7.543278 125 123 121 
2.700917 -0.411009 -7.515596 141 140 135 
2.700544 -0.406534 -7.433757 162 162 154 
2.527731 -0.376471 -6.884034 195 196 186 
2.537563 -0.373957 -6.838063 223 224 210 
2.543046 -0.370861 -6.781457 225 225 210 
2.552632 -0.368421 -6.736842 216 214 203 
2.566285 -0.366612 -6.703764 211 208 203 
2.575610 -0.364228 -6.660162 213 211 212 
2.576489 -0.360709 -6.595813 213 212 218 
2.593900 -0.359551 -6.574639 200 200 210 
2.602871 -0.357257 -6.532695 195 196 207 
2.624204 -0.356688 -6.522293 201 204 214 
2.653908 -0.357257 -6.532695 204 206 216 
2.683706 -0.357827 -6.543131 204 207 215 
2.713600 -0.358400 -6.553600 213 217 221 
2.734824 -0.357827 -6.543131 225 227 230 
2.755981 -0.357257 -6.532695 222 224 226 
2.768254 -0.355556 -6.501587 215 215 219 
2.784810 -0.354430 -6.481013 216 215 221 
2.819048 -0.355556 -6.501587 215 214 221 
2.848967 -0.356121 -6.511924 212 211 218 
-1.352113 -0.422535 -7.211267 226 213 126 
-1.305556 -0.416667 -7.111111 225 208 128 
-1.271157 -0.414508 -7.074266 226 210 135 
-1.241379 -0.413793 -7.062069 192 175 103 
-1.209622 -0.412371 -7.037801 176 161 92 
-1.182131 -0.412371 -7.037801 172 158 94 
-1.164645 -0.415945 -7.098787 159 146 87 
-1.136915 -0.415945 -7.098787 151 138 84 
-1.116928 -0.418848 -7.148342 140 127 78 
-0.975288 -0.395387 -6.747941 112 101 58 
-0.948929 -0.395387 -6.747941 108 97 55 
-0.921053 -0.394737 -6.736842 115 105 63 
-0.710059 -0.355030 -6.059172 99 90 49 
-0.679356 -0.351391 -5.997072 103 94 53 
-0.654015 -0.350365 -5.979562 97 89 48 
-0.629738 -0.349854 -5.970846 94 87 46 
-0.606414 -0.349854 -5.970846 93 86 46 
-0.583090 -0.349854 -5.970846 93 86 45 
-0.560584 -0.350365 -5.979562 95 88 47 
-0.538799 -0.351391 -5.997072 92 85 44 
-0.391837 -0.326531 -5.572789 75 67 31 
-0.369565 -0.326087 -5.565217 80 72 35 
-0.347826 -0.326087 -5.565217 88 80 41 
-0.326531 -0.326531 -5.572789 92 85 43 
-0.305593 -0.327422 -5.587995 87 81 38 
-0.284153 -0.327869 -5.595628 89 82 40 
-0.263014 -0.328767 -5.610959 88 81 40 
-0.241096 -0.328767 -5.610959 82 75 34 
-0.220386 -0.330579 -5.641873 79 71 31 
0.039216 -0.588235 -10.039216 75 65 30 
0.077108 -0.578313 -9.869880 78 66 31 
0.115385 -0.576923 -9.846154 79 67 32 
0.153846 -0.576923 -9.846154 79 67 32 
0.191847 -0.575540 -9.822542 78 66 31 
0.229665 -0.574163 -9.799043 74 62 25 
0.267943 -0.574163 -9.799043 83 69 31 
0.306954 -0.575540 -9.822542 97 82 44 
0.345324 -0.575540 -9.822542 84 70 31 
0.383693 -0.575540 -9.822542 77 64 26 
0.485830 -0.485830 -8.291498 86 76 38 
0.518219 -0.485830 -8.291498 92 81 42 
0.550607 -0.485830 -8.291498 100 89 48 
0.593814 -0.494845 -8.445361 94 82 41 
0.630705 -0.497925 -8.497926 91 80 40 
0.666667 -0.500000 -8.533334 88 79 40 
0.800000 -0.500000 -8.533334 99 90 52 
0.823045 -0.493827 -8.427983 100 90 53 
0.848980 -0.489796 -8.359183 105 95 58 
0.870968 -0.483871 -8.258064 112 102 63 
0.899598 -0.481928 -8.224899 122 112 70 
0.931727 -0.481928 -8.224899 132 121 74 
0.965795 -0.482897 -8.241448 145 132 81 
1.000000 -0.483871 -8.258064 165 151 97 
1.034343 -0.484848 -8.274748 159 144 91 
1.148581 -0.400668 -6.838063 117 105 69 
1.046563 -0.266075 -4.541020 125 115 77 
1.056106 -0.264026 -4.506051 121 110 73 
1.073707 -0.264026 -4.506051 118 107 71 
1.091309 -0.264026 -4.506051 117 107 69 
1.108911 -0.264026 -4.506051 114 104 63 
1.127753 -0.264317 -4.511013 128 116 74 
2.691312 -0.443623 -7.571165 207 207 198 
2.720887 -0.443623 -7.571165 217 216 208 
2.554622 -0.403361 -6.884034 215 214 210 
2.547264 -0.398010 -6.792703 217 217 214 
2.556837 -0.395387 -6.747941 215 214 214 
2.570492 -0.393443 -6.714754 213 212 214 
2.579805 -0.390879 -6.671010 215 214 217 
2.584814 -0.387722 -6.617125 210 211 217 
2.593900 -0.385233 -6.574639 208 209 218 
2.611200 -0.384000 -6.553600 202 204 214 
2.628389 -0.382775 -6.532695 193 196 206 
2.662400 -0.384000 -6.553600 200 203 212 
2.696629 -0.385233 -6.574639 205 207 216 
2.717949 -0.384615 -6.564103 206 209 215 
2.743590 -0.384615 -6.564103 209 211 217 
2.764800 -0.384000 -6.553600 208 209 214 
2.790400 -0.384000 -6.553600 207 207 212 
2.802548 -0.382166 -6.522293 215 214 220 
2.828026 -0.382166 -6.522293 219 218 224 
-1.333333 -0.444444 -7.111111 239 223 136 
-1.292096 -0.439863 -7.037801 210 188 108 
-1.264605 -0.439863 -7.037801 218 195 120 
-1.237113 -0.439863 -7.037801 194 173 100 
-1.209622 -0.439863 -7.037801 178 157 88 
-1.176068 -0.437607 -7.001709 181 162 96 
-1.148718 -0.437607 -7.001709 167 151 89 
-1.132988 -0.442142 -7.074266 157 143 85 
-1.116928 -0.446771 -7.148342 145 131 79 
-0.975288 -0.421746 -6.747941 120 108 64 
-0.947368 -0.421053 -6.736842 115 105 60 
-0.921053 -0.421053 -6.736842 121 112 66 
-0.894737 -0.421053 -6.736842 121 114 67 
-0.710059 -0.378698 -6.059172 106 96 53 
-0.678363 -0.374269 -5.988304 107 96 54 
-0.654015 -0.373723 -5.979562 96 86 45 
-0.629738 -0.373178 -5.970846 94 86 46 
-0.605531 -0.372635 -5.962154 90 83 44 
-0.582242 -0.372635 -5.962154 92 85 44 
-0.559767 -0.373178 -5.970846 97 90 49 
-0.537226 -0.373723 -5.979562 92 85 42 
-0.515373 -0.374817 -5.997072 97 90 47 
-0.492669 -0.375367 -6.005865 98 91 47 
-0.469208 -0.375367 -6.005865 88 79 37 
-0.422287 -0.375367 -6.005865 83 75 35 
-0.369565 -0.347826 -5.565217 84 76 36 
-0.347826 -0.347826 -5.565217 88 80 40 
-0.326531 -0.348299 -5.572789 91 83 41 
-0.305177 -0.348774 -5.580381 91 84 41 
-0.283765 -0.349250 -5.587995 91 84 42 
-0.262295 -0.349727 -5.595628 80 73 33 
-0.240766 -0.350205 -5.603283 80 71 33 
-0.219178 -0.350685 -5.610959 80 71 33 
0.000000 -0.616867 -9.869880 75 65 29 
0.038462 -0.615385 -9.846154 77 66 30 
0.076923 -0.615385 -9.846154 78 68 31 
0.115108 -0.613909 -9.822542 79 68 31 
0.153110 -0.612440 -9.799043 82 71 33 
0.191388 -0.612440 -9.799043 83 72 33 
0.229665 -0.612440 -9.799043 75 64 25 
0.267943 -0.612440 -9.799043 69 57 20 
0.306954 -0.613909 -9.822542 74 62 25 
0.345324 -0.613909 -9.822542 78 66 29 
0.383693 -0.613909 -9.822542 81 70 32 
0.423077 -0.615385 -9.846154 83 72 34 
0.488798 -0.521385 -8.342159 83 74 36 
0.517172 -0.517172 -8.274748 89 77 40 
0.549495 -0.517172 -8.274748 99 87 48 
0.595041 -0.528926 -8.462810 96 84 45 
0.783673 -0.522449 -8.359183 97 89 52 
0.816327 -0.522449 -8.359183 103 93 57 
0.842105 -0.518219 -8.291498 108 98 60 
0.870968 -0.516129 -8.258064 112 102 62 
0.899598 -0.514056 -8.224899 130 119 73 
0.931727 -0.514056 -8.224899 162 148 94 
0.967742 -0.516129 -8.258064 183 165 104 
1.002020 -0.517172 -8.274748 215 194 132 
1.038540 -0.519270 -8.308316 196 175 120 
1.148581 -0.427379 -6.838063 121 108 70 
1.054945 -0.281319 -4.501099 125 113 76 
1.072528 -0.281319 -4.501099 118 107 72 
1.088913 -0.281010 -4.496158 120 110 74 
1.106476 -0.281010 -4.496158 122 112 73 
2.691312 -0.473198 -7.571165 221 220 213 
2.705882 -0.470588 -7.529412 212 212 207 
2.735294 -0.470588 -7.529412 209 209 206 
2.581513 -0.430252 -6.884034 212 211 217 
2.573798 -0.424544 -6.792703 215 214 220 
2.583196 -0.421746 -6.747941 210 209 214 
2.596721 -0.419672 -6.714754 209 208 215 
2.605863 -0.416938 -6.671010 201 202 210 
2.606452 -0.412903 -6.606452 204 205 214 
2.615385 -0.410256 -6.564103 214 216 224 
2.641026 -0.410256 -6.564103 207 208 217 
2.722311 -0.410915 -6.574639 204 205 214 
2.747993 -0.410915 -6.574639 206 207 214 
2.769231 -0.410256 -6.564103 208 209 215 
2.794872 -0.410256 -6.564103 211 212 219 
2.820513 -0.410256 -6.564103 214 213 220 
-1.324138 -0.468966 -7.062069 228 203 123 
-1.292096 -0.467354 -7.037801 186 161 87 
-1.264605 -0.467354 -7.037801 222 200 126 
-1.239243 -0.468158 -7.049914 214 191 117 
-1.211704 -0.468158 -7.049914 179 157 85 
-1.180103 -0.466552 -7.025729 188 167 99 
-1.148718 -0.464957 -7.001709 177 161 95 
-1.127148 -0.467354 -7.037801 162 148 85 
-0.975288 -0.448105 -6.747941 121 108 63 
-0.947368 -0.447368 -6.736842 123 112 65 
-0.921053 -0.447368 -6.736842 129 120 71 
-0.894737 -0.447368 -6.736842 124 116 68 
-0.709010 -0.401773 -6.050221 109 96 52 
-0.678363 -0.397661 -5.988304 105 93 49 
-0.654015 -0.397080 -5.979562 99 88 46 
-0.629738 -0.396501 -5.970846 99 90 48 
-0.605531 -0.395924 -5.962154 97 89 48 
-0.582242 -0.395924 -5.962154 97 90 49 
-0.558952 -0.395924 -5.962154 100 93 51 
-0.536443 -0.396501 -5.970846 93 85 43 
-0.513869 -0.397080 -5.979562 98 90 47 
-0.491228 -0.397661 -5.988304 102 94 49 
-0.469208 -0.398827 -6.005865 93 84 41 
-0.445748 -0.398827 -6.005865 90 81 39 
-0.422287 -0.398827 -6.005865 89 80 38 
-0.398827 -0.398827 -6.005865 89 80 38 
-0.373178 -0.396501 -5.970846 88 80 39 
-0.326975 -0.370572 -5.580381 87 81 39 
-0.305177 -0.370572 -5.580381 92 85 44 
-0.284153 -0.371585 -5.595628 90 83 43 
-0.262654 -0.372093 -5.603283 82 75 35 
-0.240766 -0.372093 -5.603283 80 72 34 
-0.221300 -0.376210 -5.665284 80 71 35 
-0.199446 -0.376731 -5.673130 81 72 35 
-0.038554 -0.655422 -9.869880 77 68 30 
0.000000 -0.650718 -9.799043 72 63 25 
0.038369 -0.652278 -9.822542 77 67 29 
0.076739 -0.652278 -9.822542 80 71 31 
0.115108 -0.652278 -9.822542 79 69 29 
0.153110 -0.650718 -9.799043 81 70 29 
0.191388 -0.650718 -9.799043 84 73 32 
0.229665 -0.650718 -9.799043 82 70 29 
0.267943 -0.650718 -9.799043 83 72 32 
0.306954 -0.652278 -9.822542 84 72 32 
0.346154 -0.653846 -9.846154 88 77 36 
0.384615 -0.653846 -9.846154 93 82 40 
0.487805 -0.552846 -8.325203 81 70 33 
0.517172 -0.549495 -8.274748 85 73 36 
0.548387 -0.548387 -8.258064 97 85 47 
0.592593 -0.559671 -8.427983 100 88 49 
0.628099 -0.561983 -8.462810 96 84 45 
0.661157 -0.561983 -8.462810 96 86 45 
0.694215 -0.561983 -8.462810 98 90 49 
0.704000 -0.544000 -8.192000 91 84 44 
0.725838 -0.536489 -8.078896 89 81 43 
0.757396 -0.536489 -8.078896 97 89 52 
0.808081 -0.549495 -8.274748 106 97 59 
0.838710 -0.548387 -8.258064 112 102 63 
0.870968 -0.548387 -8.258064 116 107 64 
0.901408 -0.547284 -8.241448 140 129 79 
0.931727 -0.546185 -8.224899 179 164 106 
0.965795 -0.547284 -8.241448 203 182 121 
1.002020 -0.549495 -8.274748 216 192 133 
1.036437 -0.550607 -8.291498 179 157 106 
1.070994 -0.551724 -8.308316 136 118 77 
1.121870 -0.454090 -6.838063 122 108 69 
1.139073 -0.450331 -6.781457 120 107 68 
1.163636 -0.449587 -6.770248 121 107 69 
2.757576 -0.515152 -7.757576 212 209 213 
2.756554 -0.509363 -7.670412 207 206 210 
2.740331 -0.500921 -7.543278 204 205 209 
2.816479 -0.509363 -7.670412 205 206 212 
2.781362 -0.487455 -7.340502 206 205 214 
2.600332 -0.451078 -6.792703 205 203 213 
2.618182 -0.449587 -6.770248 204 203 213 
2.636511 -0.439418 -6.617125 207 208 217 
2.747993 -0.436597 -6.574639 209 209 215 
2.769231 -0.435897 -6.564103 210 210 215 
2.799358 -0.436597 -6.574639 211 211 215 
-1.331023 -0.499133 -7.098787 196 174 100 
-1.294320 -0.495697 -7.049914 189 166 95 
-1.266781 -0.495697 -7.049914 237 220 147 
-1.239243 -0.495697 -7.049914 223 200 124 
-1.213793 -0.496552 -7.062069 182 160 85 
-1.184165 -0.495697 -7.049914 187 168 96 
-1.148718 -0.492308 -7.001709 188 172 101 
-1.129088 -0.495697 -7.049914 174 160 91 
-0.947368 -0.473684 -6.736842 131 121 68 
-0.921053 -0.473684 -6.736842 131 121 69 
-0.709010 -0.425406 -6.050221 116 103 58 
-0.678363 -0.421053 -5.988304 113 100 55 
-0.654015 -0.420438 -5.979562 111 99 54 
-0.629738 -0.419825 -5.970846 108 98 52 
-0.605531 -0.419214 -5.962154 102 94 49 
-0.582242 -0.419214 -5.962154 100 92 49 
-0.558952 -0.419214 -5.962154 101 93 52 
-0.536443 -0.419825 -5.970846 98 89 48 
-0.513120 -0.419825 -5.970846 99 91 49 
-0.491228 -0.421053 -5.988304 98 90 46 
-0.468521 -0.421669 -5.997072 86 78 35 
-0.445748 -0.422287 -6.005865 89 81 38 
-0.422287 -0.422287 -6.005865 92 83 39 
-0.398827 -0.422287 -6.005865 89 80 36 
-0.375367 -0.422287 -6.005865 82 74 33 
-0.349854 -0.419825 -5.970846 80 72 33 
-0.325581 -0.418605 -5.953488 84 76 39 
-0.301887 -0.417997 -5.944848 83 75 38 
-0.278665 -0.417997 -5.944848 79 73 34 
-0.244784 -0.400556 -5.696801 80 74 35 
-0.221607 -0.398892 -5.673130 81 74 36 
-0.199446 -0.398892 -5.673130 80 70 32 
-0.177531 -0.399445 -5.680999 82 72 34 
-0.155340 -0.399445 -5.680999 85 74 37 
-0.132964 -0.398892 -5.673130 78 67 31 
-0.110803 -0.398892 -5.673130 74 63 29 
-0.088398 -0.397790 -5.657459 75 66 30 
0.000000 -0.688995 -9.799043 68 58 18 
0.038369 -0.690647 -9.822542 68 58 21 
0.076739 -0.690647 -9.822542 78 68 31 
0.115108 -0.690647 -9.822542 84 75 35 
0.153477 -0.690647 -9.822542 83 72 32 
0.191388 -0.688995 -9.799043 88 77 36 
0.230216 -0.690647 -9.822542 86 74 33 
0.268585 -0.690647 -9.822542 87 76 35 
0.307692 -0.692308 -9.846154 85 73 33 
0.346988 -0.693976 -9.869880 87 75 34 
0.456212 -0.586558 -8.342159 84 73 35 
0.485830 -0.582996 -8.291498 84 72 35 
0.516129 -0.580645 -8.258064 84 73 36 
0.548387 -0.580645 -8.258064 85 73 37 
0.580645 -0.580645 -8.258064 86 74 37 
0.628099 -0.595041 -8.462810 92 80 42 
0.661157 -0.595041 -8.462810 96 86 45 
0.678788 -0.581818 -8.274748 105 97 55 
0.704000 -0.576000 -8.192000 102 95 53 
0.727273 -0.569170 -8.094862 95 87 48 
0.764940 -0.573705 -8.159363 102 93 55 
0.804829 -0.579477 -8.241448 111 102 63 
0.838710 -0.580645 -8.258064 122 112 71 
0.870968 -0.580645 -8.258064 131 121 76 
0.901408 -0.579477 -8.241448 149 136 86 
0.931727 -0.578313 -8.224899 167 150 96 
0.960000 -0.576000 -8.192000 175 153 100 
0.997988 -0.579477 -8.241448 170 146 97 
1.030181 -0.579477 -8.241448 146 124 82 
1.064516 -0.580645 -8.258064 129 111 73 
1.098990 -0.581818 -8.274748 119 103 69 
1.098827 -0.482412 -6.860971 120 106 68 
1.121870 -0.480801 -6.838063 118 104 66 
1.140962 -0.477612 -6.792703 117 102 66 
1.165563 -0.476821 -6.781457 118 104 66 
2.782609 -0.544423 -7.742911 207 207 214 
2.781308 -0.538318 -7.656075 206 208 214 
2.780037 -0.532348 -7.571165 207 210 216 
2.799263 -0.530387 -7.543278 208 211 217 
2.848921 -0.517986 -7.366907 205 204 217 
2.773676 -0.462279 -6.574639 212 211 214 
-1.331023 -0.526863 -7.098787 167 148 79 
-1.296552 -0.524138 -7.062069 200 179 110 
-1.268965 -0.524138 -7.062069 241 226 157 
-1.243523 -0.525043 -7.074266 216 192 118 
-1.215889 -0.525043 -7.074266 187 166 92 
-1.188256 -0.525043 -7.074266 192 175 101 
-1.156626 -0.523236 -7.049914 206 190 117 
-1.129088 -0.523236 -7.049914 210 196 123 
-1.088435 -0.517007 -6.965986 173 159 92 
-0.957055 -0.466258 -6.282208 155 142 81 
-0.932515 -0.466258 -6.282208 153 141 80 
-0.973684 -0.500000 -6.736842 168 157 94 
-0.947368 -0.500000 -6.736842 163 153 91 
-0.919540 -0.499179 -6.725780 131 120 64 
-0.738095 -0.452381 -6.095238 119 106 63 
-0.709010 -0.449040 -6.050221 112 100 56 
-0.678363 -0.444444 -5.988304 114 101 56 
-0.653061 -0.443149 -5.970846 117 105 59 
-0.629738 -0.443149 -5.970846 115 104 58 
-0.606414 -0.443149 -5.970846 108 97 52 
-0.582242 -0.442504 -5.962154 102 91 48 
-0.558952 -0.442504 -5.962154 98 88 47 
-0.536443 -0.443149 -5.970846 96 87 46 
-0.513120 -0.443149 -5.970846 99 91 48 
-0.491228 -0.444444 -5.988304 95 89 44 
-0.468521 -0.445095 -5.997072 78 71 26 
-0.445748 -0.445748 -6.005865 88 80 36 
-0.422287 -0.445748 -6.005865 91 82 39 
-0.398827 -0.445748 -6.005865 83 73 32 
-0.375367 -0.445748 -6.005865 78 69 31 
-0.350365 -0.443796 -5.979562 79 70 34 
-0.325581 -0.441860 -5.953488 84 77 39 
-0.302326 -0.441860 -5.953488 84 77 39 
-0.279070 -0.441860 -5.953488 79 73 34 
-0.254703 -0.439942 -5.927641 79 74 34 
-0.222222 -0.422222 -5.688889 81 75 35 
-0.199446 -0.421053 -5.673130 79 70 30 
-0.177040 -0.420470 -5.665284 82 71 33 
-0.155125 -0.421053 -5.673130 84 72 37 
-0.132964 -0.421053 -5.673130 76 63 30 
-0.110803 -0.421053 -5.673130 70 59 27 
-0.088398 -0.419890 -5.657459 66 57 23 
0.038369 -0.729017 -9.822542 53 41 10 
0.076739 -0.729017 -9.822542 58 46 17 
0.115108 -0.729017 -9.822542 67 55 25 
0.153477 -0.729017 -9.822542 66 54 23 
0.191847 -0.729017 -9.822542 68 55 25 
0.230769 -0.730769 -9.846154 67 54 23 
0.269231 -0.730769 -9.846154 63 50 20 
0.308434 -0.732530 -9.869880 65 52 21 
0.455285 -0.617886 -8.325203 87 75 36 
0.485830 -0.615385 -8.291498 87 76 36 
0.516129 -0.612903 -8.258064 85 74 35 
0.542914 -0.606786 -8.175649 82 71 33 
0.574850 -0.606786 -8.175649 81 69 32 
0.611670 -0.611670 -8.241448 87 75 38 
0.646465 -0.614141 -8.274748 94 82 43 
0.674699 -0.610442 -8.224899 102 91 51 
0.704000 -0.608000 -8.192000 99 90 51 
0.733068 -0.605578 -8.159363 98 90 51 
0.766467 -0.606786 -8.175649 109 100 61 
0.804829 -0.611670 -8.241448 116 106 67 
0.838710 -0.612903 -8.258064 123 113 71 
0.870968 -0.612903 -8.258064 132 121 77 
0.903226 -0.612903 -8.258064 149 135 88 
0.931727 -0.610442 -8.224899 159 141 91 
0.960000 -0.608000 -8.192000 156 134 86 
0.995984 -0.610442 -8.224899 152 129 84 
1.030181 -0.611670 -8.241448 143 122 82 
1.062374 -0.611670 -8.241448 129 110 73 
1.083665 -0.605578 -8.159363 115 98 64 
1.131313 -0.614141 -8.274748 108 94 61 
1.314168 -0.624230 -8.410678 117 103 65 
1.100671 -0.510067 -6.872483 115 100 63 
1.123746 -0.508361 -6.849498 114 100 63 
1.148581 -0.507513 -6.838063 113 99 63 
1.175292 -0.507513 -6.838063 112 99 62 
2.781308 -0.568224 -7.656075 205 208 214 
2.780037 -0.561922 -7.571165 212 216 222 
2.773723 -0.554745 -7.474452 208 211 217 
2.802920 -0.554745 -7.474452 209 210 217 
2.832117 -0.554745 -7.474452 209 209 218 
-1.333333 -0.555556 -7.111111 161 143 83 
-1.296552 -0.551724 -7.062069 192 172 110 
-1.266781 -0.550775 -7.049914 213 195 131 
-1.243523 -0.552677 -7.074266 204 183 116 
-1.217993 -0.553633 -7.086505 203 185 117 
-0.955590 -0.490046 -6.272588 174 159 95 
-0.929664 -0.489297 -6.262997 197 183 117 
-0.905199 -0.489297 -6.262997 185 171 104 
-0.883436 -0.490798 -6.282208 177 165 100 
-0.858896 -0.490798 -6.282208 139 126 68 
-0.835638 -0.491551 -6.291859 120 107 55 
-0.779300 -0.487062 -6.234399 113 98 56 
-0.738095 -0.476190 -6.095238 112 98 57 
-0.711111 -0.474074 -6.068148 116 102 61 
-0.678363 -0.467836 -5.988304 123 110 67 
-0.654015 -0.467153 -5.979562 120 108 63 
-0.629738 -0.466472 -5.970846 116 105 59 
-0.606414 -0.466472 -5.970846 112 100 56 
-0.582242 -0.465793 -5.962154 105 93 50 
-0.558952 -0.465793 -5.962154 97 85 43 
-0.536443 -0.466472 -5.970846 94 82 39 
-0.513869 -0.467153 -5.979562 109 98 52 
-0.491947 -0.468521 -5.997072 117 108 59 
-0.468521 -0.468521 -5.997072 91 83 34 
-0.445748 -0.469208 -6.005865 94 84 39 
-0.423529 -0.470588 -6.023530 90 80 38 
-0.400000 -0.470588 -6.023530 78 68 29 
-0.376471 -0.470588 -6.023530 79 69 33 
-0.351906 -0.469208 -6.005865 80 72 36 
-0.327007 -0.467153 -5.979562 86 79 40 
-0.302326 -0.465116 -5.953488 95 87 47 
-0.279070 -0.465116 -5.953488 95 87 46 
-0.244784 -0.445063 -5.696801 82 75 34 
-0.222222 -0.444444 -5.688889 80 71 32 
-0.199170 -0.442600 -5.665284 78 68 29 
-0.177040 -0.442600 -5.665284 81 70 32 
-0.155125 -0.443213 -5.673130 78 66 31 
-0.230216 -0.767386 -9.822542 69 58 25 
0.019584 -0.391677 -5.013464 40 29 7 
0.039120 -0.391198 -5.007335 38 27 6 
0.115108 -0.767386 -9.822542 39 28 8 
0.230769 -0.769231 -9.846154 39 28 8 
0.269231 -0.769231 -9.846154 41 29 9 
0.308434 -0.771084 -9.869880 43 31 10 
0.487805 -0.650406 -8.325203 88 77 37 
0.510978 -0.638723 -8.175649 86 76 35 
0.526112 -0.618955 -7.922631 88 79 37 
0.552783 -0.614203 -7.861804 93 82 42 
0.582375 -0.613027 -7.846743 92 81 40 
0.613027 -0.613027 -7.846743 92 81 39 
0.648649 -0.617761 -7.907336 99 88 46 
0.680851 -0.618955 -7.922631 100 89 48 
0.710425 -0.617761 -7.907336 107 95 55 
0.764940 -0.637450 -8.159363 117 105 65 
0.796813 -0.637450 -8.159363 122 110 70 
0.837022 -0.643863 -8.241448 124 112 71 
0.869215 -0.643863 -8.241448 118 106 65 
0.901408 -0.643863 -8.241448 121 109 67 
0.924303 -0.637450 -8.159363 131 116 73 
0.958084 -0.638723 -8.175649 131 113 71 
0.990020 -0.638723 -8.175649 132 114 72 
1.083665 -0.637450 -8.159363 121 106 66 
1.075630 -0.537815 -6.884034 119 104 62 
1.100671 -0.536913 -6.872483 116 102 61 
1.125628 -0.536013 -6.860971 114 99 59 
1.152429 -0.536013 -6.860971 112 97 59 
1.177258 -0.535117 -6.849498 111 98 60 
1.206030 -0.536013 -6.860971 111 99 61 
2.780037 -0.591497 -7.571165 209 211 218 
2.773723 -0.583942 -7.474452 209 212 218 
2.802920 -0.583942 -7.474452 211 213 219 
2.832117 -0.583942 -7.474452 216 217 225 
-1.333333 -0.583333 -7.111111 152 135 83 
-0.903846 -0.403846 -4.923077 166 146 92 
-0.884615 -0.403846 -4.923077 175 155 100 
-0.866426 -0.404332 -4.929001 174 156 99 
-0.952672 -0.512977 -6.253435 193 176 110 
-0.928244 -0.512977 -6.253435 187 170 102 
-0.903817 -0.512977 -6.253435 160 144 75 
-0.882083 -0.514548 -6.272588 159 146 79 
-0.857580 -0.514548 -6.272588 144 131 70 
-0.831804 -0.513761 -6.262997 141 128 71 
-0.804878 -0.512195 -6.243902 140 127 72 
-0.779300 -0.511416 -6.234399 129 115 65 
-0.743628 -0.503748 -6.140930 119 105 60 
-0.714286 -0.500000 -6.095238 120 107 65 
-0.680352 -0.492669 -6.005865 123 110 69 
-0.654971 -0.491228 -5.988304 117 105 62 
-0.631579 -0.491228 -5.988304 113 102 58 
-0.607299 -0.490511 -5.979562 111 100 56 
-0.583090 -0.489796 -5.970846 108 96 52 
-0.559767 -0.489796 -5.970846 101 89 45 
-0.536443 -0.489796 -5.970846 99 85 41 
-0.515373 -0.491947 -5.997072 117 104 55 
-0.491947 -0.491947 -5.997072 134 121 69 
-0.468521 -0.491947 -5.997072 109 97 46 
-0.445748 -0.492669 -6.005865 88 77 29 
-0.424153 -0.494845 -6.032401 84 72 30 
-0.400589 -0.494845 -6.032401 77 67 28 
-0.377025 -0.494845 -6.032401 78 68 32 
-0.353461 -0.494845 -6.032401 78 67 33 
-0.329897 -0.494845 -6.032401 84 75 38 
-0.306785 -0.495575 -6.041298 97 88 48 
-0.282769 -0.494845 -6.032401 100 90 49 
-0.245125 -0.467967 -5.704735 82 72 32 
-0.222222 -0.466667 -5.688889 76 66 28 
-0.199170 -0.464730 -5.665284 70 61 24 
-0.177040 -0.464730 -5.665284 71 61 27 
-0.266667 -0.800000 -9.752381 68 58 26 
0.019584 -0.411261 -5.013464 33 24 6 
0.039120 -0.410758 -5.007335 32 24 5 
0.117647 -0.411765 -5.019608 32 23 5 
0.137255 -0.411765 -5.019608 33 24 5 
0.156479 -0.410758 -5.007335 35 25 5 
0.176039 -0.410758 -5.007335 38 26 7 
0.195360 -0.410256 -5.001221 37 24 5 
0.273717 -0.522551 -6.370140 37 24 4 
0.500978 -0.657534 -8.015656 78 65 28 
0.526112 -0.649903 -7.922631 82 70 32 
0.551724 -0.643678 -7.846743 97 86 46 
0.580153 -0.641221 -7.816794 104 94 50 
0.608365 -0.638783 -7.787072 100 92 45 
0.636364 -0.636364 -7.757576 101 91 45 
0.666667 -0.636364 -7.757576 105 92 48 
0.684015 -0.624535 -7.613383 118 104 59 
0.705882 -0.617647 -7.529412 126 111 67 
0.733945 -0.616514 -7.515596 131 117 72 
0.754991 -0.609800 -7.433757 134 121 75 
0.789762 -0.614260 -7.488117 122 110 66 
0.819013 -0.614260 -7.488117 113 101 59 
0.854512 -0.618785 -7.543278 117 105 64 
1.075630 -0.564706 -6.884034 122 107 63 
1.102521 -0.564706 -6.884034 122 107 62 
1.127517 -0.563758 -6.872483 116 101 59 
1.152429 -0.562814 -6.860971 110 95 56 
1.177258 -0.561873 -6.849498 110 97 58 
1.206030 -0.562814 -6.860971 111 99 60 
1.230769 -0.561873 -6.849498 112 100 61 
0.844885 -0.369637 -4.506051 114 102 65 
2.252427 -0.815534 -9.941748 115 104 69 
2.280193 -0.811594 -9.893720 118 107 71 
2.318841 -0.811594 -9.893720 118 106 70 
2.764706 -0.617647 -7.529412 206 207 215 
2.773723 -0.613139 -7.474452 207 208 217 
2.802920 -0.613139 -7.474452 210 211 220 
2.858195 -0.618785 -7.543278 211 212 222 
-0.924188 -0.423586 -4.929001 149 134 82 
-0.903846 -0.423077 -4.923077 165 148 94 
-0.884615 -0.423077 -4.923077 167 150 96 
-0.866426 -0.423586 -4.929001 163 146 93 
-0.847172 -0.423586 -4.929001 151 137 83 
-0.952672 -0.537405 -6.253435 216 201 123 
-0.928244 -0.537405 -6.253435 186 170 91 
-0.903817 -0.537405 -6.253435 198 182 104 
-0.879389 -0.537405 -6.253435 186 172 96 
-0.856269 -0.538226 -6.262997 166 154 82 
-0.831804 -0.538226 -6.262997 163 150 83 
-0.804878 -0.536585 -6.243902 153 140 77 
-0.776935 -0.534143 -6.215478 152 140 83 
-0.744745 -0.528529 -6.150150 134 122 71 
-0.716418 -0.525373 -6.113433 120 108 62 
-0.687407 -0.521481 -6.068148 114 101 59 
-0.656892 -0.516129 -6.005865 109 97 55 
-0.633431 -0.516129 -6.005865 106 95 54 
-0.609078 -0.515373 -5.997072 107 96 54 
-0.584795 -0.514620 -5.988304 108 97 53 
-0.561404 -0.514620 -5.988304 106 94 50 
-0.538012 -0.514620 -5.988304 104 92 46 
-0.515373 -0.515373 -5.997072 108 95 46 
-0.491947 -0.515373 -5.997072 130 116 64 
-0.468521 -0.515373 -5.997072 126 112 61 
-0.445748 -0.516129 -6.005865 92 79 31 
-0.424153 -0.518409 -6.032401 84 73 29 
-0.400589 -0.518409 -6.032401 84 73 32 
-0.377581 -0.519174 -6.041298 85 74 36 
-0.354505 -0.519941 -6.050221 80 69 32 
-0.330871 -0.519941 -6.050221 83 72 34 
-0.308148 -0.521481 -6.068148 91 79 39 
-0.222841 -0.490251 -5.704735 68 56 23 
-0.200000 -0.488889 -5.688889 57 46 16 
-0.268585 -0.844125 -9.822542 46 37 13 
-0.230216 -0.844125 -9.822542 46 37 15 
-0.190476 -0.838095 -9.752381 40 30 10 
0.098039 -0.431373 -5.019608 38 29 9 
0.117647 -0.431373 -5.019608 36 27 5 
0.136919 -0.430318 -5.007335 40 32 8 
0.156479 -0.430318 -5.007335 44 34 10 
0.175824 -0.429792 -5.001221 46 33 11 
0.194884 -0.428745 -4.989038 43 30 8 
0.214373 -0.428745 -4.989038 40 27 6 
0.580153 -0.671756 -7.816794 89 78 40 
0.606061 -0.666667 -7.757576 105 96 51 
0.626866 -0.656716 -7.641791 111 101 54 
0.650647 -0.650647 -7.571165 108 96 48 
0.676471 -0.647059 -7.529412 115 101 54 
0.702011 -0.643510 -7.488117 125 111 62 
0.731261 -0.643510 -7.488117 137 124 72 
0.754991 -0.638838 -7.433757 145 133 81 
0.788321 -0.642336 -7.474452 141 129 79 
0.819013 -0.643510 -7.488117 128 116 70 
0.849817 -0.644689 -7.501832 122 110 66 
1.054054 -0.594595 -6.918919 116 101 60 
1.075630 -0.591597 -6.884034 118 102 60 
1.102521 -0.591597 -6.884034 119 104 61 
1.129412 -0.591597 -6.884034 116 102 60 
1.154362 -0.590604 -6.872483 111 97 58 
1.179229 -0.589615 -6.860971 111 98 59 
1.208054 -0.590604 -6.872483 113 101 62 
1.230769 -0.588629 -6.849498 114 102 64 
0.827283 -0.387239 -4.506051 114 102 65 
0.843956 -0.386813 -4.501099 110 100 63 
0.860593 -0.386389 -4.496158 108 98 63 
2.252427 -0.854369 -9.941748 117 108 72 
2.280193 -0.850242 -9.893720 123 114 77 
2.318841 -0.850242 -9.893720 123 113 74 
2.346154 -0.846154 -9.846154 123 111 72 
2.396135 -0.850242 -9.893720 124 112 73 
3.000000 -0.687500 -8.000000 209 208 220 
3.031250 -0.687500 -8.000000 210 210 222 
-0.924188 -0.442840 -4.929001 158 145 91 
-0.903846 -0.442308 -4.923077 171 155 100 
-0.884615 -0.442308 -4.923077 159 143 88 
-0.865385 -0.442308 -4.923077 150 134 82 
-0.847172 -0.442840 -4.929001 135 121 73 
-0.827918 -0.442840 -4.929001 136 125 73 
-0.549296 -0.323944 -3.605634 219 206 120 
-0.531004 -0.321397 -3.577293 216 200 114 
