ply
format ascii 1.0
element vertex 1190
property float x
property float y
property float z
property uchar red
property uchar green
property uchar blue
end_header
3.829268 -0.341463 6.243902 0 0 0 
3.804878 -0.341463 6.243902 0 1 0 
3.780488 -0.341463 6.243902 0 2 0 
3.756098 -0.341463 6.243902 0 3 0 
3.731707 -0.341463 6.243902 0 3 0 
3.707317 -0.341463 6.243902 0 3 0 
3.682927 -0.341463 6.243902 0 3 0 
3.658537 -0.341463 6.243902 0 3 0 
3.634146 -0.341463 6.243902 0 3 0 
3.609756 -0.341463 6.243902 0 3 0 
3.585366 -0.341463 6.243902 0 2 0 
3.560976 -0.341463 6.243902 0 3 0 
3.536585 -0.341463 6.243902 0 4 0 
3.512195 -0.341463 6.243902 0 4 0 
3.487805 -0.341463 6.243902 0 4 0 
3.004471 -0.333830 6.104322 7 14 2 
3.048780 -0.341463 6.243902 7 14 2 
3.024390 -0.341463 6.243902 8 15 3 
3.000000 -0.341463 6.243902 11 17 5 
2.975610 -0.341463 6.243902 12 19 7 
2.951220 -0.341463 6.243902 13 20 8 
2.926829 -0.341463 6.243902 14 21 9 
2.902439 -0.341463 6.243902 14 21 9 
2.878049 -0.341463 6.243902 16 24 12 
2.853658 -0.341463 6.243902 16 25 13 
2.829268 -0.341463 6.243902 16 25 13 
2.804878 -0.341463 6.243902 17 26 14 
2.780488 -0.341463 6.243902 19 27 16 
2.756098 -0.341463 6.243902 21 29 18 
2.731707 -0.341463 6.243902 24 33 23 
2.707317 -0.341463 6.243902 26 34 25 
2.682927 -0.341463 6.243902 25 33 24 
2.658537 -0.341463 6.243902 24 33 25 
2.634146 -0.341463 6.243902 27 36 27 
2.414201 -0.331361 6.059172 39 49 44 
2.463415 -0.341463 6.243902 41 50 48 
2.439024 -0.341463 6.243902 43 54 52 
2.414634 -0.341463 6.243902 44 57 53 
2.390244 -0.341463 6.243902 46 59 54 
2.365854 -0.341463 6.243902 46 59 54 
2.341463 -0.341463 6.243902 46 58 54 
2.317073 -0.341463 6.243902 53 65 60 
2.292683 -0.341463 6.243902 55 68 61 
2.268293 -0.341463 6.243902 56 69 58 
2.243902 -0.341463 6.243902 61 73 56 
2.219512 -0.341463 6.243902 49 61 41 
2.195122 -0.341463 6.243902 27 36 17 
2.170732 -0.341463 6.243902 12 17 5 
2.146342 -0.341463 6.243902 3 7 1 
2.121951 -0.341463 6.243902 1 4 0 
2.097561 -0.341463 6.243902 1 4 0 
2.073171 -0.341463 6.243902 3 6 1 
2.048780 -0.341463 6.243902 9 14 4 
2.024390 -0.341463 6.243902 19 24 12 
2.000000 -0.341463 6.243902 30 36 25 
1.975610 -0.341463 6.243902 45 51 41 
1.951220 -0.341463 6.243902 63 69 61 
1.926829 -0.341463 6.243902 79 85 78 
1.902439 -0.341463 6.243902 89 95 91 
1.878049 -0.341463 6.243902 100 106 104 
1.853659 -0.341463 6.243902 103 111 111 
1.829268 -0.341463 6.243902 103 113 115 
1.804878 -0.341463 6.243902 105 116 120 
1.780488 -0.341463 6.243902 105 117 121 
1.756098 -0.341463 6.243902 102 113 119 
1.731707 -0.341463 6.243902 101 113 119 
1.707317 -0.341463 6.243902 104 116 123 
1.682927 -0.341463 6.243902 107 119 126 
1.658537 -0.341463 6.243902 107 119 126 
1.634146 -0.341463 6.243902 106 119 126 
1.609756 -0.341463 6.243902 109 121 128 
1.585366 -0.341463 6.243902 117 128 135 
1.560976 -0.341463 6.243902 122 130 140 
1.536585 -0.341463 6.243902 125 133 144 
1.512195 -0.341463 6.243902 128 137 148 
1.487805 -0.341463 6.243902 126 137 148 
1.463415 -0.341463 6.243902 126 138 149 
1.439024 -0.341463 6.243902 131 143 155 
1.414634 -0.341463 6.243902 137 147 160 
1.390244 -0.341463 6.243902 142 151 164 
1.365854 -0.341463 6.243902 145 155 168 
1.341463 -0.341463 6.243902 146 155 169 
1.285714 -0.333333 6.095238 145 154 169 
1.239766 -0.327485 5.988304 147 156 171 
1.212828 -0.326531 5.970846 150 159 174 
1.189504 -0.326531 5.970846 151 160 177 
1.169591 -0.327485 5.988304 153 161 179 
1.149560 -0.328446 6.005865 151 162 178 
1.127753 -0.328928 6.014684 161 172 189 
1.104258 -0.328928 6.014684 168 179 197 
1.080764 -0.328928 6.014684 175 187 204 
1.061947 -0.330383 6.041298 176 188 203 
1.039882 -0.330871 6.050221 157 166 181 
1.023810 -0.333333 6.095238 150 159 174 
1.002985 -0.334328 6.113433 168 177 192 
1.000000 -0.341463 6.243902 174 183 200 
0.975610 -0.341463 6.243902 186 195 212 
0.951219 -0.341463 6.243902 190 200 216 
0.926829 -0.341463 6.243902 193 202 219 
0.902439 -0.341463 6.243902 192 202 219 
0.878049 -0.341463 6.243902 188 199 214 
0.853659 -0.341463 6.243902 189 200 214 
0.829268 -0.341463 6.243902 197 207 220 
0.763006 -0.323699 5.919075 205 213 226 
0.739884 -0.323699 5.919075 209 218 231 
0.713669 -0.322302 5.893525 210 219 234 
0.634146 -0.341463 6.243902 220 229 244 
0.609756 -0.341463 6.243902 222 231 247 
0.585366 -0.341463 6.243902 226 235 251 
0.560976 -0.341463 6.243902 229 237 254 
0.521481 -0.331852 6.068148 227 236 252 
0.489083 -0.326055 5.962154 226 235 251 
0.465116 -0.325581 5.953488 228 237 253 
0.441860 -0.325581 5.953488 231 240 255 
0.418605 -0.325581 5.953488 233 243 255 
0.395349 -0.325581 5.953488 235 247 255 
0.372093 -0.325581 5.953488 227 237 249 
0.350365 -0.327007 5.979562 219 228 242 
0.330383 -0.330383 6.041298 230 239 251 
0.309985 -0.333830 6.104322 236 244 255 
0.287425 -0.335329 6.131737 237 245 255 
0.268293 -0.341463 6.243902 238 247 255 
0.243902 -0.341463 6.243902 239 248 255 
0.219512 -0.341463 6.243902 238 248 255 
0.195122 -0.341463 6.243902 241 250 255 
0.170732 -0.341463 6.243902 245 253 255 
0.146341 -0.341463 6.243902 249 255 255 
0.121951 -0.341463 6.243902 251 255 255 
0.097561 -0.341463 6.243902 252 255 255 
0.073171 -0.341463 6.243902 253 255 255 
0.048780 -0.341463 6.243902 253 255 255 
0.024390 -0.341463 6.243902 254 255 255 
-0.000000 -0.341463 6.243902 255 255 255 
-0.024390 -0.341463 6.243902 254 255 255 
-0.048780 -0.341463 6.243902 254 255 255 
-0.073171 -0.341463 6.243902 255 255 255 
-0.097561 -0.341463 6.243902 254 255 255 
-0.121951 -0.341463 6.243902 255 255 255 
-0.146341 -0.341463 6.243902 255 255 255 
-0.170732 -0.341463 6.243902 255 255 255 
-0.195122 -0.341463 6.243902 255 255 255 
-0.219512 -0.341463 6.243902 255 255 255 
-0.243902 -0.341463 6.243902 255 255 255 
-0.268293 -0.341463 6.243902 255 255 255 
-0.292683 -0.341463 6.243902 255 255 255 
-0.317073 -0.341463 6.243902 255 255 255 
-0.341463 -0.341463 6.243902 255 255 255 
-0.365854 -0.341463 6.243902 255 255 255 
-0.390244 -0.341463 6.243902 255 255 255 
-0.414634 -0.341463 6.243902 255 255 255 
-0.439024 -0.341463 6.243902 255 255 255 
-0.463415 -0.341463 6.243902 255 255 255 
-0.487805 -0.341463 6.243902 255 255 255 
-0.512195 -0.341463 6.243902 255 255 255 
-0.536585 -0.341463 6.243902 255 255 255 
-0.560976 -0.341463 6.243902 255 255 255 
-0.585366 -0.341463 6.243902 255 255 255 
-0.609756 -0.341463 6.243902 255 255 255 
-0.634146 -0.341463 6.243902 255 255 255 
-0.658537 -0.341463 6.243902 255 255 255 
-0.682927 -0.341463 6.243902 255 255 255 
-0.707317 -0.341463 6.243902 255 255 255 
-0.731707 -0.341463 6.243902 254 255 255 
-0.756098 -0.341463 6.243902 253 255 255 
-0.780488 -0.341463 6.243902 250 254 255 
-0.804878 -0.341463 6.243902 245 253 255 
-0.829268 -0.341463 6.243902 246 253 255 
-0.853659 -0.341463 6.243902 249 254 255 
-0.878049 -0.341463 6.243902 250 255 255 
-0.902439 -0.341463 6.243902 248 254 255 
-0.926829 -0.341463 6.243902 244 250 255 
-0.951219 -0.341463 6.243902 241 247 255 
-0.975610 -0.341463 6.243902 240 246 255 
-1.000000 -0.341463 6.243902 239 246 255 
-1.024390 -0.341463 6.243902 238 245 255 
-1.048780 -0.341463 6.243902 234 242 255 
-1.073171 -0.341463 6.243902 231 240 254 
-1.097561 -0.341463 6.243902 229 238 254 
-1.121951 -0.341463 6.243902 228 237 252 
-1.146341 -0.341463 6.243902 225 233 250 
-1.170732 -0.341463 6.243902 219 228 246 
-1.195122 -0.341463 6.243902 216 223 241 
-1.219512 -0.341463 6.243902 217 224 242 
-1.243902 -0.341463 6.243902 222 229 247 
-1.268293 -0.341463 6.243902 219 226 243 
-1.292683 -0.341463 6.243902 216 224 239 
-1.317073 -0.341463 6.243902 213 222 237 
-1.341463 -0.341463 6.243902 213 221 235 
-1.365854 -0.341463 6.243902 211 218 232 
-1.390244 -0.341463 6.243902 209 215 229 
-1.414634 -0.341463 6.243902 206 212 226 
-1.439024 -0.341463 6.243902 205 211 227 
-1.463415 -0.341463 6.243902 206 212 230 
-1.487805 -0.341463 6.243902 206 212 229 
-1.512195 -0.341463 6.243902 202 208 224 
-1.536585 -0.341463 6.243902 197 205 219 
-1.560976 -0.341463 6.243902 194 203 218 
-1.585366 -0.341463 6.243902 189 199 215 
-1.609756 -0.341463 6.243902 187 198 214 
-1.634146 -0.341463 6.243902 189 198 216 
-1.658537 -0.341463 6.243902 187 196 214 
-1.682927 -0.341463 6.243902 182 190 208 
-1.707317 -0.341463 6.243902 179 185 203 
-1.731707 -0.341463 6.243902 173 180 197 
-1.756098 -0.341463 6.243902 167 175 192 
-1.780488 -0.341463 6.243902 164 173 190 
-1.804878 -0.341463 6.243902 165 174 192 
-1.829268 -0.341463 6.243902 161 171 190 
-1.853659 -0.341463 6.243902 155 165 184 
-1.878049 -0.341463 6.243902 150 161 179 
-1.902439 -0.341463 6.243902 145 155 171 
-1.926829 -0.341463 6.243902 141 150 166 
-1.951220 -0.341463 6.243902 139 148 164 
-1.975610 -0.341463 6.243902 139 148 164 
-2.000000 -0.341463 6.243902 138 149 164 
-2.024390 -0.341463 6.243902 135 146 162 
-2.048780 -0.341463 6.243902 130 141 158 
-2.073171 -0.341463 6.243902 127 138 153 
-2.097561 -0.341463 6.243902 124 135 148 
-2.121951 -0.341463 6.243902 123 133 147 
-2.146342 -0.341463 6.243902 124 133 148 
-2.170732 -0.341463 6.243902 123 131 147 
-2.195122 -0.341463 6.243902 122 131 146 
-2.219512 -0.341463 6.243902 120 130 144 
-2.243902 -0.341463 6.243902 119 129 142 
-2.268293 -0.341463 6.243902 118 129 140 
-2.292683 -0.341463 6.243902 115 127 137 
-2.317073 -0.341463 6.243902 112 124 135 
-2.341463 -0.341463 6.243902 109 121 134 
-2.365854 -0.341463 6.243902 106 117 132 
-2.289051 -0.327007 5.979562 103 115 129 
-2.312409 -0.327007 5.979562 103 113 126 
-2.366864 -0.331361 6.059172 98 109 120 
-2.463415 -0.341463 6.243902 92 102 113 
-2.487805 -0.341463 6.243902 92 103 113 
-2.512195 -0.341463 6.243902 92 102 112 
3.902439 -0.317073 6.243902 0 0 0 
3.878049 -0.317073 6.243902 0 0 0 
3.853658 -0.317073 6.243902 0 0 0 
3.829268 -0.317073 6.243902 0 0 0 
3.804878 -0.317073 6.243902 0 1 0 
3.780488 -0.317073 6.243902 0 2 0 
3.756098 -0.317073 6.243902 0 3 0 
3.731707 -0.317073 6.243902 0 3 0 
3.707317 -0.317073 6.243902 0 3 0 
3.682927 -0.317073 6.243902 0 3 0 
3.658537 -0.317073 6.243902 0 3 0 
3.634146 -0.317073 6.243902 0 2 0 
3.609756 -0.317073 6.243902 0 2 0 
3.585366 -0.317073 6.243902 0 2 0 
3.560976 -0.317073 6.243902 0 3 0 
3.536585 -0.317073 6.243902 0 4 0 
3.512195 -0.317073 6.243902 0 4 0 
2.969784 -0.299281 5.893525 7 13 0 
3.002933 -0.304985 6.005865 6 13 0 
3.041916 -0.311377 6.131737 7 12 0 
3.073171 -0.317073 6.243902 7 13 1 
3.048780 -0.317073 6.243902 8 14 3 
3.024390 -0.317073 6.243902 10 17 4 
3.000000 -0.317073 6.243902 12 19 5 
2.975610 -0.317073 6.243902 13 20 6 
2.951220 -0.317073 6.243902 14 21 8 
2.853658 -0.317073 6.243902 16 25 13 
2.829268 -0.317073 6.243902 16 25 13 
2.804878 -0.317073 6.243902 18 27 15 
2.780488 -0.317073 6.243902 19 27 15 
2.756098 -0.317073 6.243902 19 28 16 
2.731707 -0.317073 6.243902 22 31 20 
2.707317 -0.317073 6.243902 23 31 22 
2.682927 -0.317073 6.243902 23 32 22 
2.658537 -0.317073 6.243902 24 35 25 
2.634146 -0.317073 6.243902 26 36 26 
2.358382 -0.300578 5.919075 36 45 40 
2.390532 -0.307692 6.059172 37 46 44 
2.439024 -0.317073 6.243902 42 53 52 
2.414634 -0.317073 6.243902 43 57 53 
2.390244 -0.317073 6.243902 45 59 53 
2.365854 -0.317073 6.243902 47 60 53 
2.341463 -0.317073 6.243902 48 60 55 
2.317073 -0.317073 6.243902 51 64 56 
2.292683 -0.317073 6.243902 51 65 52 
2.268293 -0.317073 6.243902 49 62 46 
2.243902 -0.317073 6.243902 39 51 32 
2.219512 -0.317073 6.243902 20 30 13 
2.195122 -0.317073 6.243902 5 11 2 
2.170732 -0.317073 6.243902 1 5 0 
2.146342 -0.317073 6.243902 1 4 0 
2.121951 -0.317073 6.243902 2 4 0 
2.097561 -0.317073 6.243902 2 5 0 
2.073171 -0.317073 6.243902 4 7 0 
2.048780 -0.317073 6.243902 6 10 0 
2.024390 -0.317073 6.243902 5 9 0 
2.000000 -0.317073 6.243902 6 11 1 
1.975610 -0.317073 6.243902 12 17 4 
1.951220 -0.317073 6.243902 20 25 11 
1.926829 -0.317073 6.243902 27 32 18 
1.902439 -0.317073 6.243902 38 43 30 
1.878049 -0.317073 6.243902 59 64 49 
1.853659 -0.317073 6.243902 75 82 70 
1.829268 -0.317073 6.243902 92 100 91 
1.804878 -0.317073 6.243902 106 114 109 
1.780488 -0.317073 6.243902 109 118 118 
1.756098 -0.317073 6.243902 109 117 121 
1.731707 -0.317073 6.243902 108 118 123 
1.707317 -0.317073 6.243902 108 118 125 
1.682927 -0.317073 6.243902 107 119 125 
1.658537 -0.317073 6.243902 107 119 125 
1.634146 -0.317073 6.243902 112 124 129 
1.609756 -0.317073 6.243902 115 127 132 
1.585366 -0.317073 6.243902 120 131 138 
1.560976 -0.317073 6.243902 123 133 142 
1.536585 -0.317073 6.243902 125 134 145 
1.512195 -0.317073 6.243902 128 137 148 
1.487805 -0.317073 6.243902 129 140 152 
1.463415 -0.317073 6.243902 133 144 156 
1.439024 -0.317073 6.243902 134 146 158 
1.414634 -0.317073 6.243902 136 146 158 
1.390244 -0.317073 6.243902 138 148 160 
1.365854 -0.317073 6.243902 140 149 161 
1.341463 -0.317073 6.243902 142 151 164 
1.285714 -0.309524 6.095238 144 153 166 
1.258160 -0.308605 6.077151 147 156 171 
1.238095 -0.309524 6.095238 154 162 179 
1.214286 -0.309524 6.095238 155 164 181 
1.173020 -0.304985 6.005865 156 165 182 
1.149560 -0.304985 6.005865 154 165 181 
1.126100 -0.304985 6.005865 168 179 196 
1.104258 -0.305433 6.014684 174 185 202 
1.087149 -0.307238 6.050221 172 184 201 
1.068249 -0.308605 6.077151 168 180 196 
1.047619 -0.309524 6.095238 157 167 183 
1.031484 -0.311844 6.140930 159 168 183 
1.024390 -0.317073 6.243902 175 185 200 
1.000000 -0.317073 6.243902 181 190 207 
0.975610 -0.317073 6.243902 187 198 214 
0.951219 -0.317073 6.243902 189 200 216 
0.926829 -0.317073 6.243902 186 197 213 
0.902439 -0.317073 6.243902 186 197 213 
0.878049 -0.317073 6.243902 184 195 211 
0.853659 -0.317073 6.243902 187 198 212 
0.829268 -0.317073 6.243902 198 207 221 
0.804878 -0.317073 6.243902 205 214 227 
0.780488 -0.317073 6.243902 211 220 233 
0.756098 -0.317073 6.243902 211 221 235 
0.731707 -0.317073 6.243902 211 222 236 
0.609756 -0.317073 6.243902 220 229 246 
0.585366 -0.317073 6.243902 224 231 249 
0.560976 -0.317073 6.243902 226 235 252 
0.521481 -0.308148 6.068148 227 236 253 
0.488372 -0.302326 5.953488 227 236 253 
0.463768 -0.301449 5.936232 230 239 254 
0.440580 -0.301449 5.936232 235 243 255 
0.417997 -0.301887 5.944848 237 246 255 
0.395349 -0.302326 5.953488 236 246 255 
0.372635 -0.302766 5.962154 228 239 251 
0.350877 -0.304094 5.988304 223 232 248 
0.330383 -0.306785 6.041298 232 240 253 
0.309985 -0.309985 6.104322 239 247 255 
0.286996 -0.310912 6.122571 243 251 255 
0.268293 -0.317073 6.243902 244 252 255 
0.243902 -0.317073 6.243902 245 253 255 
0.219512 -0.317073 6.243902 245 254 255 
0.195122 -0.317073 6.243902 245 254 255 
0.170732 -0.317073 6.243902 246 254 255 
0.146341 -0.317073 6.243902 248 254 255 
0.121951 -0.317073 6.243902 252 255 255 
0.097561 -0.317073 6.243902 254 255 255 
0.073171 -0.317073 6.243902 254 255 255 
0.048780 -0.317073 6.243902 254 255 255 
0.024390 -0.317073 6.243902 255 255 255 
-0.000000 -0.317073 6.243902 255 255 255 
-0.024390 -0.317073 6.243902 255 255 255 
-0.048780 -0.317073 6.243902 255 255 255 
-0.073171 -0.317073 6.243902 255 255 255 
-0.097561 -0.317073 6.243902 255 255 255 
-0.121951 -0.317073 6.243902 255 255 255 
-0.146341 -0.317073 6.243902 255 255 255 
-0.170732 -0.317073 6.243902 255 255 255 
-0.195122 -0.317073 6.243902 255 255 255 
-0.219512 -0.317073 6.243902 255 255 255 
-0.243902 -0.317073 6.243902 255 255 255 
-0.268293 -0.317073 6.243902 255 255 255 
-0.292683 -0.317073 6.243902 255 255 255 
-0.317073 -0.317073 6.243902 255 255 255 
-0.341463 -0.317073 6.243902 255 255 255 
-0.365854 -0.317073 6.243902 255 255 255 
-0.390244 -0.317073 6.243902 255 255 255 
-0.414634 -0.317073 6.243902 255 255 255 
-0.439024 -0.317073 6.243902 255 255 255 
-0.463415 -0.317073 6.243902 255 255 255 
-0.487805 -0.317073 6.243902 255 255 255 
-0.512195 -0.317073 6.243902 255 255 255 
-0.536585 -0.317073 6.243902 255 255 255 
-0.560976 -0.317073 6.243902 254 255 255 
-0.585366 -0.317073 6.243902 254 255 255 
-0.609756 -0.317073 6.243902 254 255 255 
-0.634146 -0.317073 6.243902 253 255 255 
-0.658537 -0.317073 6.243902 253 255 255 
-0.682927 -0.317073 6.243902 254 255 255 
-0.707317 -0.317073 6.243902 254 255 255 
-0.731707 -0.317073 6.243902 252 255 255 
-0.756098 -0.317073 6.243902 248 253 255 
-0.780488 -0.317073 6.243902 246 253 255 
-0.804878 -0.317073 6.243902 247 253 255 
-0.829268 -0.317073 6.243902 247 254 255 
-0.853659 -0.317073 6.243902 249 255 255 
-0.878049 -0.317073 6.243902 250 255 255 
-0.902439 -0.317073 6.243902 248 254 255 
-0.926829 -0.317073 6.243902 245 251 255 
-0.951219 -0.317073 6.243902 244 250 255 
-0.975610 -0.317073 6.243902 241 249 255 
-1.000000 -0.317073 6.243902 239 247 255 
-1.024390 -0.317073 6.243902 239 247 255 
-1.048780 -0.317073 6.243902 237 245 255 
-1.073171 -0.317073 6.243902 233 242 255 
-1.097561 -0.317073 6.243902 231 240 255 
-1.121951 -0.317073 6.243902 230 239 254 
-1.146341 -0.317073 6.243902 227 236 253 
-1.170732 -0.317073 6.243902 225 234 251 
-1.195122 -0.317073 6.243902 223 231 250 
-1.219512 -0.317073 6.243902 222 230 248 
-1.243902 -0.317073 6.243902 223 229 247 
-1.268293 -0.317073 6.243902 222 228 245 
-1.292683 -0.317073 6.243902 220 228 244 
-1.317073 -0.317073 6.243902 215 223 239 
-1.341463 -0.317073 6.243902 211 219 233 
-1.365854 -0.317073 6.243902 210 216 230 
-1.390244 -0.317073 6.243902 209 214 228 
-1.414634 -0.317073 6.243902 208 213 228 
-1.439024 -0.317073 6.243902 209 213 230 
-1.463415 -0.317073 6.243902 209 215 233 
-1.487805 -0.317073 6.243902 208 215 233 
-1.512195 -0.317073 6.243902 204 211 228 
-1.536585 -0.317073 6.243902 199 207 222 
-1.560976 -0.317073 6.243902 197 206 221 
-1.585366 -0.317073 6.243902 193 204 219 
-1.609756 -0.317073 6.243902 192 202 218 
-1.634146 -0.317073 6.243902 191 201 217 
-1.658537 -0.317073 6.243902 187 195 212 
-1.682927 -0.317073 6.243902 181 188 204 
-1.707317 -0.317073 6.243902 177 184 200 
-1.731707 -0.317073 6.243902 173 181 197 
-1.756098 -0.317073 6.243902 169 178 194 
-1.780488 -0.317073 6.243902 165 174 190 
-1.804878 -0.317073 6.243902 162 171 188 
-1.829268 -0.317073 6.243902 155 165 184 
-1.853659 -0.317073 6.243902 151 161 180 
-1.878049 -0.317073 6.243902 148 159 178 
-1.902439 -0.317073 6.243902 144 155 173 
-1.926829 -0.317073 6.243902 142 151 168 
-1.951220 -0.317073 6.243902 140 149 167 
-1.975610 -0.317073 6.243902 141 150 168 
-2.000000 -0.317073 6.243902 141 151 169 
-2.024390 -0.317073 6.243902 135 146 163 
-2.048780 -0.317073 6.243902 129 140 157 
-2.073171 -0.317073 6.243902 127 138 153 
-2.097561 -0.317073 6.243902 125 136 150 
-2.121951 -0.317073 6.243902 124 134 149 
-2.146342 -0.317073 6.243902 123 132 147 
-2.170732 -0.317073 6.243902 122 131 147 
-2.195122 -0.317073 6.243902 122 131 146 
-2.219512 -0.317073 6.243902 121 131 145 
-2.243902 -0.317073 6.243902 119 130 143 
-2.268293 -0.317073 6.243902 117 129 141 
-2.292683 -0.317073 6.243902 112 124 136 
-2.317073 -0.317073 6.243902 110 122 134 
-2.341463 -0.317073 6.243902 109 121 134 
-2.365854 -0.317073 6.243902 106 118 131 
-2.285714 -0.303207 5.970846 103 115 128 
-2.312409 -0.303650 5.979562 101 112 125 
-2.359882 -0.306785 6.041298 96 108 118 
-2.463415 -0.317073 6.243902 92 104 114 
-2.487805 -0.317073 6.243902 93 105 115 
-2.512195 -0.317073 6.243902 93 104 114 
3.902439 -0.292683 6.243902 0 0 0 
3.878049 -0.292683 6.243902 0 0 0 
3.853658 -0.292683 6.243902 0 0 0 
3.829268 -0.292683 6.243902 0 0 0 
3.804878 -0.292683 6.243902 0 1 0 
3.780488 -0.292683 6.243902 0 2 0 
3.756098 -0.292683 6.243902 0 2 0 
3.731707 -0.292683 6.243902 0 3 0 
3.707317 -0.292683 6.243902 0 3 0 
3.682927 -0.292683 6.243902 0 3 0 
3.658537 -0.292683 6.243902 0 3 0 
3.634146 -0.292683 6.243902 0 2 0 
3.609756 -0.292683 6.243902 0 2 0 
3.585366 -0.292683 6.243902 0 3 0 
3.560976 -0.292683 6.243902 1 4 0 
3.536585 -0.292683 6.243902 1 4 0 
3.066865 -0.285290 6.086181 7 12 0 
3.084337 -0.289157 6.168674 7 12 0 
3.097561 -0.292683 6.243902 7 12 0 
3.073171 -0.292683 6.243902 8 13 2 
3.048780 -0.292683 6.243902 10 15 4 
3.024390 -0.292683 6.243902 11 18 5 
2.774290 -0.286996 6.122571 17 26 14 
2.804878 -0.292683 6.243902 18 26 14 
2.780488 -0.292683 6.243902 16 25 13 
2.756098 -0.292683 6.243902 18 28 16 
2.731707 -0.292683 6.243902 21 31 21 
2.707317 -0.292683 6.243902 21 30 21 
2.682927 -0.292683 6.243902 23 34 23 
2.658537 -0.292683 6.243902 26 37 27 
2.634146 -0.292683 6.243902 26 37 26 
2.609756 -0.292683 6.243902 24 35 25 
2.585366 -0.292683 6.243902 27 37 28 
2.358382 -0.277457 5.919075 36 46 41 
2.369501 -0.281525 6.005865 41 50 48 
2.388060 -0.286567 6.113433 48 61 58 
2.414634 -0.292683 6.243902 46 60 55 
2.390244 -0.292683 6.243902 45 59 51 
2.365854 -0.292683 6.243902 48 61 52 
2.341463 -0.292683 6.243902 51 63 54 
2.317073 -0.292683 6.243902 50 64 50 
2.292683 -0.292683 6.243902 49 63 44 
2.268293 -0.292683 6.243902 35 48 29 
2.243902 -0.292683 6.243902 11 20 7 
2.219512 -0.292683 6.243902 4 10 1 
2.195122 -0.292683 6.243902 3 7 0 
2.170732 -0.292683 6.243902 4 7 0 
2.146342 -0.292683 6.243902 5 8 0 
2.121951 -0.292683 6.243902 9 11 0 
2.097561 -0.292683 6.243902 14 16 0 
2.073171 -0.292683 6.243902 20 22 0 
2.048780 -0.292683 6.243902 23 27 0 
2.024390 -0.292683 6.243902 20 25 0 
2.000000 -0.292683 6.243902 22 27 0 
1.975610 -0.292683 6.243902 24 29 0 
1.951220 -0.292683 6.243902 18 23 0 
1.926829 -0.292683 6.243902 13 18 0 
1.902439 -0.292683 6.243902 11 17 1 
1.878049 -0.292683 6.243902 15 21 5 
1.853659 -0.292683 6.243902 20 26 13 
1.829268 -0.292683 6.243902 37 43 27 
1.804878 -0.292683 6.243902 61 66 51 
1.780488 -0.292683 6.243902 72 78 68 
1.756098 -0.292683 6.243902 86 93 87 
1.731707 -0.292683 6.243902 101 108 107 
1.707317 -0.292683 6.243902 109 117 119 
1.682927 -0.292683 6.243902 113 122 126 
1.658537 -0.292683 6.243902 116 126 130 
1.634146 -0.292683 6.243902 120 130 136 
1.609756 -0.292683 6.243902 120 130 136 
1.585366 -0.292683 6.243902 121 131 139 
1.560976 -0.292683 6.243902 122 132 142 
1.536585 -0.292683 6.243902 124 134 146 
1.512195 -0.292683 6.243902 127 136 148 
1.487805 -0.292683 6.243902 131 141 153 
1.463415 -0.292683 6.243902 133 144 156 
1.439024 -0.292683 6.243902 131 143 154 
1.414634 -0.292683 6.243902 133 143 154 
1.390244 -0.292683 6.243902 136 146 156 
1.365854 -0.292683 6.243902 138 147 159 
1.341463 -0.292683 6.243902 143 152 165 
1.289552 -0.286567 6.113433 147 156 169 
1.261905 -0.285714 6.095238 149 158 173 
1.243647 -0.286996 6.122571 151 161 176 
1.225225 -0.288288 6.150150 153 163 179 
1.201201 -0.288288 6.150150 155 165 182 
1.161481 -0.284444 6.068148 159 169 187 
1.134417 -0.283604 6.050221 166 177 194 
1.104258 -0.281938 6.014684 167 178 195 
1.091988 -0.284866 6.077151 164 175 192 
1.068249 -0.284866 6.077151 160 171 188 
1.050746 -0.286567 6.113433 159 170 187 
1.048780 -0.292683 6.243902 170 181 197 
1.024390 -0.292683 6.243902 180 190 206 
1.000000 -0.292683 6.243902 182 192 209 
0.975610 -0.292683 6.243902 181 192 207 
0.951219 -0.292683 6.243902 183 194 209 
0.926829 -0.292683 6.243902 186 198 212 
0.902439 -0.292683 6.243902 189 200 215 
0.878049 -0.292683 6.243902 190 201 216 
0.853659 -0.292683 6.243902 197 207 221 
0.829268 -0.292683 6.243902 204 213 227 
0.804878 -0.292683 6.243902 204 213 227 
0.780488 -0.292683 6.243902 206 216 228 
0.756098 -0.292683 6.243902 206 217 231 
0.731707 -0.292683 6.243902 209 220 235 
0.609756 -0.292683 6.243902 219 228 245 
0.585366 -0.292683 6.243902 222 231 249 
0.560976 -0.292683 6.243902 226 235 252 
0.536585 -0.292683 6.243902 226 236 253 
0.486957 -0.278261 5.936232 226 235 252 
0.462428 -0.277457 5.919075 231 240 254 
0.439306 -0.277457 5.919075 236 245 255 
0.417391 -0.278261 5.936232 239 248 255 
0.394775 -0.278665 5.944848 238 247 255 
0.373178 -0.279883 5.970846 238 247 255 
0.351391 -0.281113 5.997072 238 247 255 
0.330383 -0.283186 6.041298 239 247 255 
0.309524 -0.285714 6.095238 241 249 255 
0.286996 -0.286996 6.122571 243 251 255 
0.268293 -0.292683 6.243902 243 251 255 
0.243902 -0.292683 6.243902 246 254 255 
0.219512 -0.292683 6.243902 249 255 255 
0.195122 -0.292683 6.243902 249 255 255 
0.170732 -0.292683 6.243902 249 255 255 
0.146341 -0.292683 6.243902 250 255 255 
0.121951 -0.292683 6.243902 251 255 255 
0.097561 -0.292683 6.243902 254 255 255 
0.073171 -0.292683 6.243902 255 255 255 
0.048780 -0.292683 6.243902 255 255 255 
0.024390 -0.292683 6.243902 255 255 255 
-0.000000 -0.292683 6.243902 255 255 255 
-0.024390 -0.292683 6.243902 255 255 255 
-0.048780 -0.292683 6.243902 255 255 255 
-0.073171 -0.292683 6.243902 255 255 255 
-0.097561 -0.292683 6.243902 255 255 255 
-0.121951 -0.292683 6.243902 255 255 255 
-0.146341 -0.292683 6.243902 255 255 255 
-0.170732 -0.292683 6.243902 255 255 255 
-0.195122 -0.292683 6.243902 255 255 255 
-0.219512 -0.292683 6.243902 255 255 255 
-0.243902 -0.292683 6.243902 255 255 255 
-0.268293 -0.292683 6.243902 255 255 255 
-0.292683 -0.292683 6.243902 255 255 255 
-0.317073 -0.292683 6.243902 255 255 255 
-0.341463 -0.292683 6.243902 255 255 255 
-0.365854 -0.292683 6.243902 255 255 255 
-0.390244 -0.292683 6.243902 255 255 255 
-0.414634 -0.292683 6.243902 255 255 255 
-0.439024 -0.292683 6.243902 255 255 255 
-0.463415 -0.292683 6.243902 255 255 255 
-0.487805 -0.292683 6.243902 255 255 255 
-0.512195 -0.292683 6.243902 255 255 255 
-0.536585 -0.292683 6.243902 255 255 255 
-0.560976 -0.292683 6.243902 252 255 255 
-0.585366 -0.292683 6.243902 252 255 255 
-0.609756 -0.292683 6.243902 250 254 255 
-0.634146 -0.292683 6.243902 248 253 255 
-0.658537 -0.292683 6.243902 249 254 255 
-0.682927 -0.292683 6.243902 251 255 255 
-0.707317 -0.292683 6.243902 251 255 255 
-0.731707 -0.292683 6.243902 251 255 255 
-0.756098 -0.292683 6.243902 251 254 255 
-0.780488 -0.292683 6.243902 252 255 255 
-0.804878 -0.292683 6.243902 252 255 255 
-0.829268 -0.292683 6.243902 251 255 255 
-0.853659 -0.292683 6.243902 250 255 255 
-0.878049 -0.292683 6.243902 250 255 255 
-0.902439 -0.292683 6.243902 249 255 255 
-0.926829 -0.292683 6.243902 247 254 255 
-0.951219 -0.292683 6.243902 246 252 255 
-0.975610 -0.292683 6.243902 243 251 255 
-1.000000 -0.292683 6.243902 240 249 255 
-1.024390 -0.292683 6.243902 240 248 255 
-1.048780 -0.292683 6.243902 237 246 255 
-1.073171 -0.292683 6.243902 234 243 255 
-1.097561 -0.292683 6.243902 233 242 255 
-1.121951 -0.292683 6.243902 233 241 255 
-1.146341 -0.292683 6.243902 231 239 255 
-1.170732 -0.292683 6.243902 229 237 254 
-1.195122 -0.292683 6.243902 227 236 253 
-1.219512 -0.292683 6.243902 225 233 251 
-1.243902 -0.292683 6.243902 221 229 245 
-1.268293 -0.292683 6.243902 218 225 241 
-1.292683 -0.292683 6.243902 217 224 241 
-1.317073 -0.292683 6.243902 214 221 237 
-1.341463 -0.292683 6.243902 210 217 233 
-1.365854 -0.292683 6.243902 209 215 230 
-1.390244 -0.292683 6.243902 209 215 229 
-1.414634 -0.292683 6.243902 209 214 230 
-1.439024 -0.292683 6.243902 210 214 232 
-1.463415 -0.292683 6.243902 209 214 233 
-1.487805 -0.292683 6.243902 206 213 231 
-1.512195 -0.292683 6.243902 202 210 226 
-1.536585 -0.292683 6.243902 199 207 223 
-1.560976 -0.292683 6.243902 198 207 222 
-1.585366 -0.292683 6.243902 195 205 220 
-1.609756 -0.292683 6.243902 191 202 217 
-1.634146 -0.292683 6.243902 190 199 216 
-1.658537 -0.292683 6.243902 187 195 212 
-1.682927 -0.292683 6.243902 183 192 208 
-1.707317 -0.292683 6.243902 180 189 205 
-1.731707 -0.292683 6.243902 174 184 199 
-1.756098 -0.292683 6.243902 166 177 191 
-1.780488 -0.292683 6.243902 158 167 182 
-1.804878 -0.292683 6.243902 155 163 180 
-1.829268 -0.292683 6.243902 152 161 180 
-1.853659 -0.292683 6.243902 150 160 179 
-1.878049 -0.292683 6.243902 149 158 177 
-1.902439 -0.292683 6.243902 146 157 175 
-1.926829 -0.292683 6.243902 146 155 173 
-1.951220 -0.292683 6.243902 144 154 172 
-1.975610 -0.292683 6.243902 142 153 171 
-2.000000 -0.292683 6.243902 140 151 168 
-2.024390 -0.292683 6.243902 137 148 165 
-2.048780 -0.292683 6.243902 135 146 162 
-2.073171 -0.292683 6.243902 133 144 159 
-2.097561 -0.292683 6.243902 130 140 155 
-2.121951 -0.292683 6.243902 127 135 151 
-2.146342 -0.292683 6.243902 124 133 148 
-2.170732 -0.292683 6.243902 124 132 148 
-2.195122 -0.292683 6.243902 124 133 146 
-2.219512 -0.292683 6.243902 122 131 144 
-2.243902 -0.292683 6.243902 118 129 141 
-2.268293 -0.292683 6.243902 115 127 139 
-2.292683 -0.292683 6.243902 112 124 135 
-2.317073 -0.292683 6.243902 110 122 134 
-2.341463 -0.292683 6.243902 110 121 133 
-2.252540 -0.278665 5.944848 107 118 130 
-2.275762 -0.278665 5.944848 104 115 126 
-2.312409 -0.280292 5.979562 101 112 123 
-2.359882 -0.283186 6.041298 97 108 119 
-2.463415 -0.292683 6.243902 94 106 116 
-2.487805 -0.292683 6.243902 93 105 114 
-2.512195 -0.292683 6.243902 93 105 114 
3.902439 -0.268293 6.243902 0 0 0 
3.878049 -0.268293 6.243902 0 0 0 
3.853658 -0.268293 6.243902 0 0 0 
3.829268 -0.268293 6.243902 0 0 0 
3.804878 -0.268293 6.243902 0 1 0 
3.780488 -0.268293 6.243902 0 2 0 
3.756098 -0.268293 6.243902 0 2 0 
3.731707 -0.268293 6.243902 0 2 0 
3.707317 -0.268293 6.243902 0 2 0 
3.682927 -0.268293 6.243902 0 3 0 
3.658537 -0.268293 6.243902 0 3 0 
3.634146 -0.268293 6.243902 0 2 0 
3.609756 -0.268293 6.243902 1 3 0 
3.585366 -0.268293 6.243902 1 4 0 
3.560976 -0.268293 6.243902 1 4 0 
3.095238 -0.261905 6.095238 5 11 0 
3.146342 -0.268293 6.243902 6 12 0 
3.121951 -0.268293 6.243902 8 13 0 
3.097561 -0.268293 6.243902 9 13 2 
3.073171 -0.268293 6.243902 9 14 4 
3.048780 -0.268293 6.243902 11 16 6 
2.780488 -0.268293 6.243902 21 30 18 
2.756098 -0.268293 6.243902 22 32 20 
2.731707 -0.268293 6.243902 23 34 23 
2.707317 -0.268293 6.243902 23 34 23 
2.682927 -0.268293 6.243902 26 36 26 
2.658537 -0.268293 6.243902 28 38 28 
2.634146 -0.268293 6.243902 29 40 30 
2.609756 -0.268293 6.243902 30 41 31 
2.585366 -0.268293 6.243902 32 42 33 
2.560976 -0.268293 6.243902 36 47 40 
2.356941 -0.249292 5.801700 38 50 43 
2.337589 -0.249645 5.809929 37 49 43 
2.358382 -0.254335 5.919075 38 48 44 
2.366032 -0.257687 5.997072 41 51 47 
2.346041 -0.258065 6.005865 43 55 50 
2.381955 -0.264662 6.159399 46 59 51 
2.390244 -0.268293 6.243902 48 61 51 
2.365854 -0.268293 6.243902 49 62 49 
2.341463 -0.268293 6.243902 51 64 48 
2.317073 -0.268293 6.243902 46 59 38 
2.292683 -0.268293 6.243902 28 39 19 
2.268293 -0.268293 6.243902 10 18 6 
2.243902 -0.268293 6.243902 5 8 0 
2.219512 -0.268293 6.243902 8 11 0 
2.195122 -0.268293 6.243902 10 13 0 
2.170732 -0.268293 6.243902 13 16 1 
2.146342 -0.268293 6.243902 17 19 2 
2.121951 -0.268293 6.243902 26 28 4 
2.097561 -0.268293 6.243902 34 36 4 
2.073171 -0.268293 6.243902 37 40 2 
2.048780 -0.268293 6.243902 43 46 3 
2.024390 -0.268293 6.243902 44 47 3 
2.000000 -0.268293 6.243902 42 44 3 
1.975610 -0.268293 6.243902 44 45 4 
1.951220 -0.268293 6.243902 45 47 6 
1.926829 -0.268293 6.243902 44 47 7 
1.902439 -0.268293 6.243902 34 38 2 
1.878049 -0.268293 6.243902 26 30 0 
1.853659 -0.268293 6.243902 15 20 0 
1.829268 -0.268293 6.243902 12 17 2 
1.804878 -0.268293 6.243902 12 16 6 
1.780488 -0.268293 6.243902 17 20 11 
1.756098 -0.268293 6.243902 35 40 24 
1.731707 -0.268293 6.243902 56 60 43 
1.707317 -0.268293 6.243902 74 76 65 
1.682927 -0.268293 6.243902 96 99 92 
1.658537 -0.268293 6.243902 112 117 115 
1.634146 -0.268293 6.243902 121 128 133 
1.609756 -0.268293 6.243902 121 130 137 
1.585366 -0.268293 6.243902 121 131 140 
1.560976 -0.268293 6.243902 125 134 144 
1.536585 -0.268293 6.243902 127 137 147 
1.512195 -0.268293 6.243902 128 138 149 
1.487805 -0.268293 6.243902 130 140 151 
1.463415 -0.268293 6.243902 132 142 153 
1.439024 -0.268293 6.243902 132 143 153 
1.414634 -0.268293 6.243902 135 145 156 
1.390244 -0.268293 6.243902 139 149 159 
1.365854 -0.268293 6.243902 140 149 161 
1.341463 -0.268293 6.243902 145 153 167 
1.317073 -0.268293 6.243902 147 156 170 
1.267564 -0.263079 6.122571 146 155 170 
1.249249 -0.264264 6.150150 146 157 171 
1.243902 -0.268293 6.243902 154 165 180 
1.219512 -0.268293 6.243902 160 171 187 
1.195122 -0.268293 6.243902 164 175 191 
1.141159 -0.261516 6.086181 163 174 191 
1.117385 -0.261516 6.086181 161 172 189 
1.093611 -0.261516 6.086181 159 171 188 
1.079460 -0.263868 6.140930 164 175 192 
1.073171 -0.268293 6.243902 172 183 200 
1.048780 -0.268293 6.243902 179 189 206 
1.024390 -0.268293 6.243902 181 191 208 
1.000000 -0.268293 6.243902 183 192 209 
0.937042 -0.257687 5.997072 183 193 210 
0.913616 -0.257687 5.997072 184 194 210 
0.899408 -0.260355 6.059172 186 196 211 
0.888889 -0.264264 6.150150 190 199 214 
0.878049 -0.268293 6.243902 195 205 219 
0.853659 -0.268293 6.243902 202 210 223 
0.829268 -0.268293 6.243902 204 212 225 
0.804878 -0.268293 6.243902 203 211 225 
0.780488 -0.268293 6.243902 200 209 222 
0.756098 -0.268293 6.243902 201 212 225 
0.731707 -0.268293 6.243902 208 219 233 
0.707317 -0.268293 6.243902 212 223 238 
0.609756 -0.268293 6.243902 220 230 246 
0.585366 -0.268293 6.243902 223 234 251 
0.560976 -0.268293 6.243902 227 236 253 
0.536585 -0.268293 6.243902 230 240 254 
0.486957 -0.255072 5.936232 230 240 254 
0.394775 -0.255443 5.944848 234 242 255 
0.374269 -0.257310 5.988304 236 244 255 
0.353982 -0.259587 6.041298 239 247 255 
0.331361 -0.260355 6.059172 242 250 255 
0.310448 -0.262687 6.113433 243 251 255 
0.287425 -0.263473 6.131737 245 252 255 
0.268293 -0.268293 6.243902 247 253 255 
0.243902 -0.268293 6.243902 250 255 255 
0.219512 -0.268293 6.243902 252 255 255 
0.195122 -0.268293 6.243902 253 255 255 
0.170732 -0.268293 6.243902 253 255 255 
0.146341 -0.268293 6.243902 250 254 255 
0.121951 -0.268293 6.243902 248 253 255 
0.097561 -0.268293 6.243902 253 255 255 
0.073171 -0.268293 6.243902 255 255 255 
0.048780 -0.268293 6.243902 255 255 255 
0.024390 -0.268293 6.243902 255 255 255 
-0.000000 -0.268293 6.243902 255 255 255 
-0.024390 -0.268293 6.243902 255 255 255 
-0.048780 -0.268293 6.243902 255 255 255 
-0.073171 -0.268293 6.243902 255 255 255 
-0.097561 -0.268293 6.243902 255 255 255 
-0.121951 -0.268293 6.243902 255 255 255 
-0.146341 -0.268293 6.243902 255 255 255 
-0.170732 -0.268293 6.243902 255 255 255 
-0.195122 -0.268293 6.243902 255 255 255 
-0.219512 -0.268293 6.243902 255 255 255 
-0.243902 -0.268293 6.243902 254 255 255 
-0.268293 -0.268293 6.243902 252 254 255 
-0.292683 -0.268293 6.243902 254 255 255 
-0.317073 -0.268293 6.243902 255 255 255 
-0.341463 -0.268293 6.243902 255 255 255 
-0.365854 -0.268293 6.243902 255 255 255 
-0.390244 -0.268293 6.243902 255 255 255 
-0.414634 -0.268293 6.243902 255 255 255 
-0.439024 -0.268293 6.243902 255 255 255 
-0.463415 -0.268293 6.243902 255 255 255 
-0.487805 -0.268293 6.243902 255 255 255 
-0.512195 -0.268293 6.243902 255 255 255 
-0.536585 -0.268293 6.243902 255 255 255 
-0.560976 -0.268293 6.243902 254 255 255 
-0.585366 -0.268293 6.243902 254 255 255 
-0.609756 -0.268293 6.243902 254 255 255 
-0.634146 -0.268293 6.243902 252 255 255 
-0.658537 -0.268293 6.243902 251 255 255 
-0.682927 -0.268293 6.243902 253 255 255 
-0.707317 -0.268293 6.243902 254 255 255 
-0.731707 -0.268293 6.243902 254 255 255 
-0.756098 -0.268293 6.243902 255 255 255 
-0.780488 -0.268293 6.243902 254 255 255 
-0.804878 -0.268293 6.243902 254 255 255 
-0.829268 -0.268293 6.243902 253 255 255 
-0.853659 -0.268293 6.243902 253 255 255 
-0.878049 -0.268293 6.243902 251 255 255 
-0.902439 -0.268293 6.243902 249 255 255 
-0.926829 -0.268293 6.243902 247 255 255 
-0.951219 -0.268293 6.243902 247 254 255 
-0.975610 -0.268293 6.243902 246 254 255 
-1.000000 -0.268293 6.243902 246 253 255 
-1.024390 -0.268293 6.243902 244 251 255 
-1.048780 -0.268293 6.243902 241 248 255 
-1.073171 -0.268293 6.243902 238 245 255 
-1.097561 -0.268293 6.243902 236 243 255 
-1.121951 -0.268293 6.243902 234 241 255 
-1.146341 -0.268293 6.243902 232 239 254 
-1.170732 -0.268293 6.243902 231 238 254 
-1.195122 -0.268293 6.243902 229 237 254 
-1.219512 -0.268293 6.243902 224 233 250 
-1.243902 -0.268293 6.243902 215 224 240 
-1.268293 -0.268293 6.243902 207 216 232 
-1.292683 -0.268293 6.243902 211 219 237 
-1.317073 -0.268293 6.243902 214 222 240 
-1.341463 -0.268293 6.243902 213 221 238 
-1.365854 -0.268293 6.243902 211 218 234 
-1.390244 -0.268293 6.243902 210 217 232 
-1.414634 -0.268293 6.243902 210 215 232 
-1.439024 -0.268293 6.243902 209 214 232 
-1.463415 -0.268293 6.243902 207 213 231 
-1.487805 -0.268293 6.243902 205 213 229 
-1.512195 -0.268293 6.243902 201 209 225 
-1.536585 -0.268293 6.243902 197 206 221 
-1.560976 -0.268293 6.243902 195 204 219 
-1.585366 -0.268293 6.243902 191 200 216 
-1.609756 -0.268293 6.243902 187 196 214 
-1.634146 -0.268293 6.243902 185 193 212 
-1.658537 -0.268293 6.243902 185 195 213 
-1.682927 -0.268293 6.243902 182 193 210 
-1.707317 -0.268293 6.243902 177 188 205 
-1.731707 -0.268293 6.243902 171 182 198 
-1.756098 -0.268293 6.243902 160 171 186 
-1.780488 -0.268293 6.243902 147 156 172 
-1.804878 -0.268293 6.243902 152 161 178 
-1.829268 -0.268293 6.243902 153 162 180 
-1.853659 -0.268293 6.243902 152 161 180 
-1.878049 -0.268293 6.243902 152 161 179 
-1.902439 -0.268293 6.243902 151 160 178 
-1.926829 -0.268293 6.243902 149 160 177 
-1.951220 -0.268293 6.243902 145 155 173 
-1.975610 -0.268293 6.243902 140 151 168 
-2.000000 -0.268293 6.243902 139 150 167 
-2.024390 -0.268293 6.243902 139 150 166 
-2.048780 -0.268293 6.243902 137 149 164 
-2.073171 -0.268293 6.243902 135 146 161 
-2.097561 -0.268293 6.243902 132 142 157 
-2.121951 -0.268293 6.243902 129 138 155 
-2.146342 -0.268293 6.243902 127 136 153 
-2.170732 -0.268293 6.243902 126 135 150 
-2.195122 -0.268293 6.243902 123 132 145 
-2.219512 -0.268293 6.243902 119 129 141 
-2.243902 -0.268293 6.243902 117 127 139 
-2.268293 -0.268293 6.243902 115 126 137 
-2.292683 -0.268293 6.243902 112 124 134 
-2.317073 -0.268293 6.243902 111 123 133 
-2.341463 -0.268293 6.243902 111 122 132 
-2.252540 -0.255443 5.944848 108 118 128 
-2.275762 -0.255443 5.944848 105 115 125 
-2.312409 -0.256934 5.979562 103 113 123 
-2.363368 -0.259970 6.050221 98 110 120 
-2.463415 -0.268293 6.243902 94 106 116 
-2.487805 -0.268293 6.243902 91 103 111 
-2.512195 -0.268293 6.243902 90 103 109 
3.902439 -0.243902 6.243902 0 0 0 
3.878049 -0.243902 6.243902 0 0 0 
3.853658 -0.243902 6.243902 0 0 0 
3.829268 -0.243902 6.243902 0 0 0 
3.804878 -0.243902 6.243902 0 1 0 
3.780488 -0.243902 6.243902 0 2 0 
3.756098 -0.243902 6.243902 0 2 0 
3.731707 -0.243902 6.243902 0 2 0 
3.707317 -0.243902 6.243902 0 3 0 
3.682927 -0.243902 6.243902 0 3 0 
3.658537 -0.243902 6.243902 0 3 0 
3.634146 -0.243902 6.243902 0 3 0 
3.609756 -0.243902 6.243902 1 3 0 
2.625000 -0.178571 4.571429 1 4 0 
2.607143 -0.178571 4.571429 1 4 0 
3.119048 -0.238095 6.095238 3 10 0 
3.170732 -0.243902 6.243902 4 11 0 
3.146342 -0.243902 6.243902 6 13 0 
3.121951 -0.243902 6.243902 8 14 1 
3.097561 -0.243902 6.243902 9 15 3 
3.073171 -0.243902 6.243902 10 16 4 
2.232143 -0.178571 4.571429 11 17 6 
2.756098 -0.243902 6.243902 24 34 22 
2.731707 -0.243902 6.243902 25 36 25 
2.707317 -0.243902 6.243902 27 36 26 
2.682927 -0.243902 6.243902 27 36 27 
2.658537 -0.243902 6.243902 28 37 28 
2.634146 -0.243902 6.243902 31 40 31 
2.609756 -0.243902 6.243902 32 42 33 
2.585366 -0.243902 6.243902 31 41 34 
2.560976 -0.243902 6.243902 35 47 41 
2.536585 -0.243902 6.243902 39 51 45 
2.381503 -0.231214 5.919075 39 52 45 
2.385965 -0.233918 5.988304 42 52 47 
2.366032 -0.234261 5.997072 43 53 48 
2.346041 -0.234604 6.005865 43 55 48 
2.374813 -0.239880 6.140930 45 58 48 
2.390244 -0.243902 6.243902 48 61 47 
2.365854 -0.243902 6.243902 50 63 45 
2.341463 -0.243902 6.243902 47 58 37 
2.317073 -0.243902 6.243902 28 36 17 
2.292683 -0.243902 6.243902 8 14 3 
2.268293 -0.243902 6.243902 4 7 0 
2.243902 -0.243902 6.243902 11 13 0 
2.219512 -0.243902 6.243902 19 21 1 
2.195122 -0.243902 6.243902 28 29 3 
2.170732 -0.243902 6.243902 42 43 7 
2.146342 -0.243902 6.243902 48 49 9 
2.121951 -0.243902 6.243902 55 57 14 
2.097561 -0.243902 6.243902 55 56 11 
2.073171 -0.243902 6.243902 50 53 4 
2.048780 -0.243902 6.243902 55 58 6 
2.024390 -0.243902 6.243902 58 60 8 
2.000000 -0.243902 6.243902 56 56 7 
1.975610 -0.243902 6.243902 60 60 12 
1.951220 -0.243902 6.243902 72 71 20 
1.926829 -0.243902 6.243902 75 74 23 
1.902439 -0.243902 6.243902 61 62 10 
1.878049 -0.243902 6.243902 55 56 7 
1.853659 -0.243902 6.243902 48 53 6 
1.829268 -0.243902 6.243902 32 39 3 
1.804878 -0.243902 6.243902 10 16 0 
1.780488 -0.243902 6.243902 4 8 0 
1.756098 -0.243902 6.243902 9 12 1 
1.731707 -0.243902 6.243902 14 17 4 
1.707317 -0.243902 6.243902 19 20 9 
1.682927 -0.243902 6.243902 33 33 22 
1.658537 -0.243902 6.243902 65 66 55 
1.634146 -0.243902 6.243902 101 105 103 
1.609756 -0.243902 6.243902 121 126 132 
1.585366 -0.243902 6.243902 133 142 150 
1.560976 -0.243902 6.243902 136 146 154 
1.536585 -0.243902 6.243902 131 141 149 
1.512195 -0.243902 6.243902 128 138 147 
1.487805 -0.243902 6.243902 128 138 148 
1.463415 -0.243902 6.243902 130 140 150 
1.439024 -0.243902 6.243902 133 143 153 
1.414634 -0.243902 6.243902 137 147 157 
1.390244 -0.243902 6.243902 140 150 160 
1.365854 -0.243902 6.243902 140 149 161 
1.341463 -0.243902 6.243902 142 151 164 
1.317073 -0.243902 6.243902 146 155 169 
1.292683 -0.243902 6.243902 153 162 175 
1.268293 -0.243902 6.243902 160 170 184 
1.243902 -0.243902 6.243902 163 174 189 
1.219512 -0.243902 6.243902 161 172 187 
1.195122 -0.243902 6.243902 157 169 183 
1.170732 -0.243902 6.243902 156 167 184 
1.146341 -0.243902 6.243902 156 167 184 
1.121951 -0.243902 6.243902 160 171 188 
1.097561 -0.243902 6.243902 170 181 197 
1.073171 -0.243902 6.243902 175 186 202 
1.048780 -0.243902 6.243902 175 185 202 
1.024390 -0.243902 6.243902 176 185 202 
0.900433 -0.230880 5.910534 186 195 212 
0.885007 -0.232897 5.962154 184 193 209 
0.883582 -0.238806 6.113433 189 198 213 
0.878049 -0.243902 6.243902 197 207 220 
0.853659 -0.243902 6.243902 202 210 223 
0.829268 -0.243902 6.243902 203 210 224 
0.804878 -0.243902 6.243902 204 211 225 
0.780488 -0.243902 6.243902 205 213 227 
0.756098 -0.243902 6.243902 207 216 231 
0.731707 -0.243902 6.243902 210 220 235 
0.707317 -0.243902 6.243902 213 223 237 
0.682927 -0.243902 6.243902 215 224 238 
0.585366 -0.243902 6.243902 223 234 251 
0.560976 -0.243902 6.243902 228 237 253 
0.536585 -0.243902 6.243902 233 242 255 
0.373178 -0.233236 5.970846 237 246 255 
0.351906 -0.234604 6.005865 242 250 255 
0.328446 -0.234604 6.005865 246 253 255 
0.307692 -0.236686 6.059172 249 254 255 
0.286996 -0.239163 6.122571 251 255 255 
0.263868 -0.239880 6.140930 253 255 255 
0.240964 -0.240964 6.168674 253 255 255 
0.219512 -0.243902 6.243902 253 255 255 
0.195122 -0.243902 6.243902 253 255 255 
0.170732 -0.243902 6.243902 254 255 255 
0.146341 -0.243902 6.243902 254 255 255 
0.121951 -0.243902 6.243902 253 255 255 
0.097561 -0.243902 6.243902 253 255 255 
0.073171 -0.243902 6.243902 253 255 255 
0.048780 -0.243902 6.243902 253 255 255 
0.024390 -0.243902 6.243902 254 255 255 
-0.000000 -0.243902 6.243902 255 255 255 
-0.024390 -0.243902 6.243902 255 255 255 
-0.048780 -0.243902 6.243902 255 255 255 
-0.073171 -0.243902 6.243902 255 255 255 
-0.097561 -0.243902 6.243902 255 255 255 
-0.121951 -0.243902 6.243902 255 255 255 
-0.146341 -0.243902 6.243902 255 255 255 
-0.170732 -0.243902 6.243902 255 255 255 
-0.195122 -0.243902 6.243902 255 255 255 
-0.219512 -0.243902 6.243902 255 255 255 
-0.243902 -0.243902 6.243902 251 254 255 
-0.268293 -0.243902 6.243902 247 251 255 
-0.292683 -0.243902 6.243902 252 254 255 
-0.317073 -0.243902 6.243902 254 255 255 
-0.341463 -0.243902 6.243902 255 255 255 
-0.365854 -0.243902 6.243902 255 255 255 
-0.390244 -0.243902 6.243902 255 255 255 
-0.414634 -0.243902 6.243902 255 255 255 
-0.439024 -0.243902 6.243902 255 255 255 
-0.463415 -0.243902 6.243902 255 255 255 
-0.487805 -0.243902 6.243902 255 255 255 
-0.512195 -0.243902 6.243902 255 255 255 
-0.536585 -0.243902 6.243902 255 255 255 
-0.560976 -0.243902 6.243902 255 255 255 
-0.585366 -0.243902 6.243902 255 255 255 
-0.609756 -0.243902 6.243902 255 255 255 
-0.634146 -0.243902 6.243902 255 255 255 
-0.658537 -0.243902 6.243902 254 255 255 
-0.682927 -0.243902 6.243902 255 255 255 
-0.707317 -0.243902 6.243902 255 255 255 
-0.731707 -0.243902 6.243902 255 255 255 
-0.756098 -0.243902 6.243902 255 255 255 
-0.780488 -0.243902 6.243902 254 255 255 
-0.804878 -0.243902 6.243902 254 255 255 
-0.829268 -0.243902 6.243902 254 255 255 
-0.853659 -0.243902 6.243902 252 255 255 
-0.878049 -0.243902 6.243902 250 255 255 
-0.902439 -0.243902 6.243902 248 255 255 
-0.926829 -0.243902 6.243902 247 255 255 
-0.951219 -0.243902 6.243902 247 255 255 
-0.975610 -0.243902 6.243902 247 254 255 
-1.000000 -0.243902 6.243902 247 253 255 
-1.024390 -0.243902 6.243902 245 251 255 
-1.048780 -0.243902 6.243902 243 249 255 
-1.073171 -0.243902 6.243902 240 246 255 
-1.097561 -0.243902 6.243902 236 244 255 
-1.121951 -0.243902 6.243902 232 240 254 
-1.146341 -0.243902 6.243902 229 237 252 
-1.170732 -0.243902 6.243902 230 237 253 
-1.195122 -0.243902 6.243902 228 236 253 
-1.219512 -0.243902 6.243902 225 234 251 
-1.243902 -0.243902 6.243902 220 228 244 
-1.268293 -0.243902 6.243902 218 226 243 
-1.292683 -0.243902 6.243902 220 229 247 
-1.317073 -0.243902 6.243902 220 228 247 
-1.341463 -0.243902 6.243902 217 225 243 
-1.365854 -0.243902 6.243902 214 221 238 
-1.390244 -0.243902 6.243902 212 219 235 
-1.414634 -0.243902 6.243902 211 217 234 
-1.439024 -0.243902 6.243902 210 216 234 
-1.463415 -0.243902 6.243902 209 215 234 
-1.487805 -0.243902 6.243902 206 214 231 
-1.512195 -0.243902 6.243902 200 208 225 
-1.536585 -0.243902 6.243902 194 203 219 
-1.560976 -0.243902 6.243902 191 200 216 
-1.585366 -0.243902 6.243902 187 196 214 
-1.609756 -0.243902 6.243902 185 194 212 
-1.634146 -0.243902 6.243902 184 194 213 
-1.658537 -0.243902 6.243902 183 193 212 
-1.682927 -0.243902 6.243902 178 189 207 
-1.707317 -0.243902 6.243902 172 183 201 
-1.731707 -0.243902 6.243902 169 179 196 
-1.756098 -0.243902 6.243902 160 171 188 
-1.780488 -0.243902 6.243902 152 162 181 
-1.804878 -0.243902 6.243902 154 164 185 
-1.829268 -0.243902 6.243902 153 163 184 
-1.853659 -0.243902 6.243902 155 165 184 
-1.878049 -0.243902 6.243902 155 164 183 
-1.902439 -0.243902 6.243902 153 161 179 
-1.926829 -0.243902 6.243902 149 159 176 
-1.951220 -0.243902 6.243902 144 155 171 
-1.975610 -0.243902 6.243902 141 152 169 
-2.000000 -0.243902 6.243902 142 153 170 
-2.024390 -0.243902 6.243902 141 152 167 
-2.048780 -0.243902 6.243902 137 148 162 
-2.073171 -0.243902 6.243902 134 145 159 
-2.097561 -0.243902 6.243902 132 141 157 
-2.121951 -0.243902 6.243902 130 139 156 
-2.146342 -0.243902 6.243902 129 137 154 
-2.170732 -0.243902 6.243902 127 135 151 
-2.195122 -0.243902 6.243902 122 131 145 
-2.219512 -0.243902 6.243902 118 127 140 
-2.243902 -0.243902 6.243902 116 125 137 
-2.268293 -0.243902 6.243902 115 125 135 
-2.292683 -0.243902 6.243902 113 124 133 
-2.317073 -0.243902 6.243902 112 122 132 
-2.341463 -0.243902 6.243902 109 119 130 
-2.255814 -0.232558 5.953488 106 115 126 
-2.279070 -0.232558 5.953488 105 115 125 
-2.315789 -0.233918 5.988304 104 114 125 
-2.377414 -0.237741 6.086181 100 111 121 
-2.463415 -0.243902 6.243902 96 108 118 
-2.487805 -0.243902 6.243902 93 105 113 
-2.512195 -0.243902 6.243902 90 102 109 
3.902439 -0.219512 6.243902 0 0 0 
3.878049 -0.219512 6.243902 0 0 0 
3.853658 -0.219512 6.243902 0 0 0 
3.829268 -0.219512 6.243902 0 0 0 
3.804878 -0.219512 6.243902 0 1 0 
3.780488 -0.219512 6.243902 0 2 0 
3.756098 -0.219512 6.243902 0 2 0 
3.731707 -0.219512 6.243902 0 3 0 
3.707317 -0.219512 6.243902 0 3 0 
3.682927 -0.219512 6.243902 0 3 0 
3.658537 -0.219512 6.243902 0 3 0 
3.634146 -0.219512 6.243902 0 3 0 
2.642857 -0.160714 4.571429 0 4 0 
2.625000 -0.160714 4.571429 1 4 0 
3.133531 -0.213650 6.077151 3 9 0 
3.195122 -0.219512 6.243902 4 11 0 
3.170732 -0.219512 6.243902 5 12 0 
3.146342 -0.219512 6.243902 6 13 0 
3.121951 -0.219512 6.243902 8 15 1 
